ncols         244
nrows         78
xllcorner     562275
yllcorner     1450351.36303
cellsize       91.363586
NOdata_struct_value  -9999
1.05 1.09 1.11 1.09 1.09 1.11 1.14 1.16 1.17 1.16 1.15 1.14 1.13 1.12 1.11 1.11 1.12 1.14 1.14 1.12 1.11 1.10 1.08 1.07 1.07 1.06 1.06 1.05 1.07 1.08 1.07 1.04 1.01 1.00 1.00 1.00 1.00 1.00 1.00 1.00 1.00 1.00 1.00 1.00 1.01 1.04 1.08 1.12 1.13 1.11 1.10 1.12 1.15 1.14 1.08 1.02 1.00 1.00 1.00 1.00 1.00 1.00 1.00 1.00 1.00 1.00 1.00 1.00 1.00 1.00 1.00 1.00 1.00 1.00 1.00 1.00 1.00 1.00 1.00 1.00 1.00 1.00 1.00 1.00 1.00 1.00 1.00 1.00 1.00 1.00 1.00 1.00 1.00 1.00 1.00 1.00 1.00 1.00 1.00 1.00 1.00 1.00 1.00 1.00 1.00 1.00 1.00 1.00 1.00 1.00 1.00 1.00 1.00 1.00 1.00 1.00 1.00 1.00 1.00 1.00 1.00 1.00 1.00 1.00 1.00 1.00 1.00 1.00 1.00 1.00 1.00 1.00 1.00 1.00 1.00 1.00 1.00 1.00 1.00 1.00 1.00 1.00 1.00 1.00 1.00 1.00 1.00 1.00 1.00 1.00 1.00 1.00 1.00 1.00 1.00 1.00 1.00 1.00 1.00 1.00 1.00 1.00 1.00 1.00 1.00 1.00 1.00 1.00 1.00 1.00 1.00 1.00 1.00 1.00 1.00 1.00 1.00 1.00 1.00 1.00 1.00 1.00 1.00 1.00 1.00 1.00 1.00 1.00 1.00 1.00 1.00 1.00 1.00 1.00 1.00 1.00 1.00 1.00 1.00 1.00 1.00 1.00 1.00 1.00 1.00 1.00 1.00 1.00 1.00 1.00 1.00 1.00 1.00 1.00 1.00 1.00 1.00 1.00 1.00 1.00 1.00 1.00 1.00 1.00 1.00 1.00 1.00 1.00 1.00 1.00 1.00 1.00 1.00 1.00 1.00 1.00 1.00 1.00 1.00 1.00 1.00 1.00 1.00 1.00
1.06 1.10 1.13 1.11 1.11 1.13 1.15 1.16 1.15 1.15 1.14 1.12 1.11 1.10 1.10 1.11 1.12 1.12 1.11 1.10 1.10 1.11 1.11 1.09 1.08 1.06 1.06 1.07 1.09 1.08 1.04 1.01 1.00 1.00 1.00 1.01 1.01 1.00 1.00 1.00 1.00 1.00 1.00 1.01 1.03 1.07 1.11 1.14 1.17 1.18 1.19 1.19 1.17 1.13 1.06 1.02 1.00 1.00 1.00 1.00 1.00 1.00 1.00 1.00 1.00 1.00 1.00 1.00 1.00 1.00 1.00 1.00 1.00 1.00 1.00 1.00 1.00 1.00 1.00 1.00 1.00 1.00 1.00 1.00 1.00 1.00 1.00 1.00 1.00 1.00 1.00 1.00 1.00 1.00 1.00 1.00 1.00 1.00 1.00 1.00 1.00 1.00 1.00 1.00 1.00 1.00 1.00 1.00 1.00 1.00 1.00 1.00 1.00 1.00 1.00 1.00 1.00 1.00 1.00 1.00 1.00 1.00 1.00 1.00 1.00 1.00 1.00 1.00 1.00 1.00 1.00 1.00 1.00 1.00 1.00 1.00 1.00 1.00 1.00 1.00 1.00 1.00 1.00 1.00 1.00 1.00 1.00 1.00 1.00 1.00 1.00 1.00 1.00 1.00 1.00 1.00 1.00 1.00 1.00 1.00 1.00 1.00 1.00 1.00 1.00 1.00 1.00 1.00 1.00 1.00 1.00 1.00 1.00 1.00 1.00 1.00 1.00 1.00 1.00 1.00 1.00 1.00 1.00 1.00 1.00 1.00 1.00 1.00 1.00 1.00 1.00 1.00 1.00 1.00 1.00 1.00 1.00 1.00 1.00 1.00 1.00 1.00 1.00 1.00 1.00 1.00 1.00 1.00 1.00 1.00 1.00 1.00 1.00 1.00 1.00 1.00 1.00 1.00 1.00 1.00 1.00 1.00 1.00 1.00 1.00 1.00 1.00 1.00 1.00 1.00 1.00 1.00 1.00 1.00 1.00 1.00 1.00 1.00 1.00 1.00 1.00 1.00 1.00 1.00
1.06 1.12 1.16 1.14 1.13 1.14 1.15 1.14 1.14 1.13 1.12 1.12 1.11 1.12 1.12 1.14 1.12 1.10 1.09 1.09 1.10 1.11 1.11 1.09 1.07 1.05 1.06 1.07 1.08 1.05 1.02 1.00 1.00 1.01 1.02 1.03 1.02 1.00 1.00 1.00 1.00 1.00 1.00 1.02 1.05 1.09 1.12 1.15 1.19 1.22 1.24 1.23 1.19 1.13 1.07 1.03 1.01 1.00 1.00 1.00 1.00 1.00 1.00 1.00 1.00 1.00 1.00 1.00 1.00 1.00 1.00 1.00 1.00 1.00 1.00 1.00 1.00 1.00 1.00 1.00 1.00 1.00 1.00 1.00 1.00 1.00 1.00 1.00 1.00 1.00 1.00 1.00 1.00 1.00 1.00 1.00 1.00 1.00 1.00 1.00 1.00 1.00 1.00 1.00 1.00 1.00 1.00 1.00 1.00 1.00 1.01 1.01 1.01 1.00 1.00 1.00 1.00 1.00 1.01 1.01 1.01 1.00 1.00 1.00 1.00 1.00 1.00 1.00 1.00 1.00 1.00 1.00 1.00 1.00 1.00 1.00 1.00 1.00 1.00 1.00 1.00 1.00 1.00 1.00 1.00 1.00 1.00 1.00 1.00 1.00 1.00 1.00 1.00 1.00 1.00 1.00 1.00 1.00 1.00 1.00 1.00 1.00 1.00 1.00 1.00 1.00 1.00 1.00 1.00 1.00 1.00 1.00 1.00 1.00 1.00 1.00 1.00 1.00 1.00 1.00 1.00 1.00 1.00 1.00 1.00 1.00 1.00 1.00 1.00 1.00 1.00 1.00 1.00 1.00 1.00 1.00 1.00 1.00 1.00 1.00 1.00 1.00 1.00 1.00 1.00 1.00 1.00 1.00 1.00 1.00 1.00 1.00 1.00 1.00 1.00 1.00 1.00 1.00 1.00 1.00 1.00 1.00 1.00 1.00 1.00 1.00 1.00 1.00 1.00 1.00 1.00 1.00 1.00 1.00 1.00 1.00 1.00 1.00 1.00 1.00 1.00 1.00 1.00 1.00
1.06 1.12 1.17 1.15 1.15 1.14 1.14 1.13 1.12 1.11 1.11 1.11 1.12 1.14 1.16 1.15 1.11 1.08 1.07 1.08 1.09 1.09 1.08 1.06 1.04 1.03 1.05 1.07 1.06 1.04 1.01 1.00 1.01 1.02 1.04 1.04 1.02 1.00 1.00 1.00 1.00 1.00 1.01 1.03 1.07 1.10 1.12 1.14 1.20 1.25 1.28 1.26 1.20 1.13 1.08 1.04 1.02 1.00 1.00 1.00 1.00 1.00 1.00 1.00 1.00 1.00 1.00 1.00 1.00 1.00 1.00 1.00 1.00 1.00 1.00 1.00 1.00 1.00 1.00 1.00 1.00 1.00 1.00 1.00 1.00 1.00 1.00 1.00 1.00 1.00 1.00 1.00 1.00 1.00 1.00 1.00 1.00 1.00 1.00 1.00 1.00 1.00 1.00 1.00 1.00 1.00 1.01 1.01 1.02 1.02 1.03 1.03 1.02 1.01 1.00 1.00 1.00 1.00 1.01 1.02 1.01 1.00 1.00 1.00 1.00 1.00 1.00 1.00 1.00 1.00 1.00 1.00 1.00 1.00 1.00 1.00 1.00 1.00 1.00 1.00 1.00 1.00 1.00 1.00 1.00 1.00 1.00 1.00 1.00 1.00 1.00 1.00 1.00 1.00 1.00 1.00 1.00 1.00 1.00 1.00 1.00 1.00 1.00 1.00 1.00 1.00 1.00 1.00 1.00 1.00 1.00 1.00 1.00 1.00 1.00 1.00 1.00 1.00 1.00 1.00 1.00 1.00 1.00 1.00 1.00 1.00 1.00 1.00 1.00 1.00 1.00 1.00 1.00 1.00 1.00 1.00 1.00 1.00 1.00 1.00 1.00 1.00 1.00 1.00 1.00 1.00 1.00 1.00 1.00 1.00 1.00 1.00 1.00 1.00 1.00 1.00 1.00 1.00 1.00 1.00 1.00 1.00 1.00 1.00 1.00 1.00 1.00 1.00 1.00 1.00 1.00 1.00 1.00 1.00 1.00 1.00 1.00 1.00 1.00 1.00 1.00 1.00 1.00 1.00
1.06 1.12 1.16 1.15 1.13 1.13 1.12 1.11 1.11 1.10 1.10 1.12 1.13 1.16 1.16 1.14 1.09 1.06 1.06 1.07 1.07 1.06 1.04 1.02 1.01 1.02 1.03 1.03 1.02 1.01 1.01 1.01 1.02 1.04 1.05 1.05 1.02 1.01 1.00 1.01 1.01 1.02 1.02 1.04 1.07 1.09 1.09 1.12 1.16 1.22 1.25 1.23 1.19 1.14 1.09 1.05 1.02 1.00 1.00 1.00 1.00 1.00 1.00 1.00 1.00 1.00 1.00 1.00 1.00 1.00 1.00 1.00 1.00 1.00 1.00 1.00 1.00 1.00 1.00 1.00 1.00 1.00 1.00 1.00 1.00 1.00 1.00 1.00 1.00 1.00 1.00 1.00 1.00 1.00 1.00 1.00 1.00 1.00 1.00 1.00 1.01 1.01 1.01 1.01 1.00 1.01 1.02 1.03 1.05 1.06 1.06 1.06 1.04 1.02 1.00 1.00 1.00 1.01 1.01 1.01 1.01 1.00 1.00 1.00 1.00 1.00 1.00 1.00 1.00 1.00 1.00 1.00 1.00 1.00 1.00 1.00 1.00 1.00 1.00 1.00 1.00 1.00 1.00 1.00 1.00 1.00 1.00 1.00 1.00 1.00 1.00 1.00 1.00 1.00 1.00 1.00 1.00 1.00 1.00 1.00 1.00 1.00 1.00 1.00 1.00 1.00 1.00 1.00 1.00 1.00 1.00 1.00 1.00 1.00 1.00 1.00 1.00 1.00 1.00 1.00 1.00 1.00 1.00 1.00 1.00 1.00 1.00 1.00 1.00 1.00 1.00 1.00 1.00 1.00 1.00 1.00 1.00 1.00 1.00 1.00 1.00 1.00 1.00 1.00 1.00 1.00 1.00 1.00 1.00 1.00 1.00 1.00 1.00 1.00 1.00 1.00 1.00 1.00 1.00 1.00 1.00 1.00 1.00 1.00 1.00 1.00 1.00 1.00 1.00 1.00 1.00 1.00 1.00 1.00 1.00 1.00 1.00 1.00 1.00 1.00 1.00 1.00 1.00 1.00
1.06 1.10 1.15 1.12 1.13 1.12 1.12 1.11 1.10 1.10 1.10 1.10 1.13 1.13 1.13 1.09 1.06 1.05 1.06 1.06 1.04 1.02 1.01 1.01 1.01 1.01 1.01 1.02 1.02 1.02 1.02 1.02 1.04 1.06 1.06 1.04 1.02 1.01 1.00 1.01 1.01 1.02 1.02 1.04 1.06 1.06 1.07 1.10 1.15 1.21 1.24 1.23 1.19 1.14 1.10 1.05 1.01 1.00 1.00 1.00 1.00 1.00 1.00 1.00 1.00 1.00 1.00 1.00 1.00 1.00 1.00 1.00 1.00 1.00 1.01 1.02 1.02 1.01 1.00 1.00 1.00 1.00 1.00 1.00 1.00 1.00 1.00 1.00 1.00 1.00 1.00 1.00 1.00 1.00 1.01 1.02 1.03 1.03 1.03 1.03 1.04 1.04 1.03 1.02 1.02 1.02 1.04 1.05 1.08 1.09 1.10 1.08 1.04 1.01 1.00 1.00 1.00 1.01 1.01 1.00 1.00 1.00 1.00 1.00 1.00 1.00 1.00 1.00 1.00 1.00 1.00 1.00 1.00 1.00 1.00 1.00 1.00 1.00 1.00 1.00 1.00 1.00 1.00 1.00 1.00 1.00 1.00 1.00 1.00 1.00 1.00 1.00 1.00 1.00 1.00 1.00 1.00 1.00 1.00 1.00 1.00 1.00 1.00 1.00 1.00 1.00 1.00 1.00 1.00 1.00 1.00 1.00 1.00 1.00 1.00 1.00 1.00 1.00 1.00 1.00 1.00 1.00 1.00 1.00 1.00 1.00 1.00 1.00 1.00 1.00 1.00 1.00 1.00 1.00 1.00 1.00 1.00 1.00 1.00 1.00 1.00 1.00 1.00 1.00 1.00 1.00 1.00 1.00 1.00 1.00 1.00 1.00 1.00 1.00 1.00 1.00 1.00 1.00 1.00 1.00 1.00 1.00 1.00 1.00 1.00 1.00 1.00 1.00 1.00 1.00 1.00 1.00 1.00 1.00 1.00 1.00 1.00 1.00 1.00 1.00 1.00 1.00 1.00 1.00
1.06 1.10 1.14 1.13 1.14 1.14 1.12 1.11 1.10 1.10 1.09 1.10 1.10 1.11 1.08 1.05 1.04 1.04 1.05 1.04 1.02 1.01 1.01 1.01 1.01 1.02 1.03 1.03 1.03 1.03 1.03 1.04 1.06 1.07 1.06 1.04 1.02 1.01 1.00 1.01 1.01 1.02 1.02 1.03 1.03 1.04 1.06 1.10 1.16 1.22 1.24 1.23 1.19 1.15 1.09 1.03 1.01 1.00 1.00 1.00 1.00 1.00 1.00 1.00 1.00 1.00 1.00 1.00 1.00 1.00 1.00 1.00 1.00 1.00 1.02 1.04 1.05 1.03 1.00 1.00 1.00 1.00 1.00 1.00 1.00 1.00 1.00 1.00 1.00 1.00 1.00 1.00 1.00 1.00 1.03 1.06 1.09 1.09 1.08 1.08 1.08 1.08 1.06 1.07 1.08 1.08 1.06 1.08 1.10 1.12 1.11 1.08 1.04 1.01 1.00 1.00 1.00 1.00 1.00 1.00 1.00 1.00 1.00 1.00 1.00 1.00 1.00 1.00 1.00 1.00 1.00 1.00 1.00 1.00 1.00 1.00 1.00 1.00 1.00 1.00 1.00 1.00 1.00 1.00 1.00 1.00 1.00 1.00 1.00 1.00 1.00 1.00 1.00 1.00 1.00 1.00 1.00 1.00 1.00 1.00 1.00 1.00 1.00 1.00 1.00 1.00 1.00 1.00 1.00 1.00 1.00 1.00 1.00 1.00 1.00 1.00 1.00 1.00 1.00 1.00 1.00 1.00 1.00 1.00 1.00 1.00 1.00 1.00 1.00 1.00 1.00 1.00 1.00 1.00 1.00 1.00 1.00 1.00 1.00 1.00 1.00 1.00 1.00 1.00 1.00 1.00 1.00 1.00 1.00 1.00 1.00 1.00 1.00 1.00 1.00 1.00 1.00 1.00 1.00 1.00 1.00 1.00 1.00 1.00 1.00 1.00 1.00 1.00 1.00 1.00 1.00 1.00 1.00 1.00 1.00 1.00 1.00 1.00 1.00 1.00 1.00 1.00 1.00 1.00
1.06 1.11 1.15 1.15 1.16 1.15 1.13 1.12 1.10 1.08 1.08 1.08 1.09 1.08 1.06 1.05 1.05 1.06 1.05 1.04 1.02 1.02 1.02 1.03 1.04 1.06 1.06 1.05 1.04 1.03 1.04 1.06 1.07 1.07 1.06 1.03 1.01 1.00 1.00 1.00 1.00 1.01 1.01 1.01 1.02 1.03 1.07 1.12 1.18 1.22 1.24 1.24 1.20 1.13 1.07 1.02 1.00 1.00 1.00 1.00 1.00 1.00 1.00 1.00 1.00 1.00 1.00 1.00 1.00 1.00 1.00 1.00 1.00 1.01 1.05 1.08 1.08 1.04 1.01 1.00 1.00 1.00 1.00 1.00 1.00 1.00 1.00 1.00 1.00 1.00 1.00 1.00 1.00 1.00 1.04 1.08 1.11 1.10 1.10 1.10 1.11 1.11 1.11 1.14 1.14 1.12 1.08 1.09 1.11 1.12 1.11 1.07 1.03 1.01 1.00 1.00 1.00 1.00 1.00 1.00 1.00 1.00 1.00 1.00 1.00 1.00 1.00 1.00 1.00 1.00 1.00 1.00 1.00 1.00 1.00 1.00 1.00 1.00 1.00 1.00 1.00 1.00 1.00 1.00 1.00 1.00 1.00 1.00 1.00 1.00 1.00 1.00 1.00 1.00 1.00 1.00 1.00 1.00 1.00 1.00 1.00 1.00 1.00 1.00 1.00 1.00 1.00 1.00 1.00 1.00 1.00 1.00 1.00 1.00 1.00 1.00 1.00 1.00 1.00 1.00 1.00 1.00 1.00 1.00 1.00 1.00 1.00 1.00 1.00 1.00 1.00 1.00 1.00 1.00 1.00 1.00 1.00 1.00 1.00 1.00 1.00 1.00 1.00 1.00 1.00 1.00 1.00 1.00 1.00 1.00 1.00 1.00 1.00 1.00 1.00 1.00 1.00 1.00 1.00 1.00 1.00 1.00 1.00 1.00 1.00 1.00 1.00 1.00 1.00 1.00 1.00 1.00 1.00 1.00 1.00 1.00 1.00 1.00 1.00 1.00 1.00 1.00 1.00 1.00
1.07 1.12 1.17 1.17 1.18 1.16 1.14 1.11 1.09 1.08 1.07 1.08 1.08 1.07 1.07 1.07 1.08 1.09 1.08 1.06 1.05 1.04 1.05 1.06 1.08 1.09 1.08 1.06 1.05 1.04 1.05 1.07 1.08 1.08 1.04 1.02 1.00 1.00 1.00 1.00 1.00 1.00 1.00 1.01 1.01 1.04 1.08 1.14 1.18 1.22 1.24 1.23 1.18 1.11 1.05 1.01 1.00 1.00 1.00 1.00 1.00 1.00 1.00 1.00 1.00 1.00 1.00 1.00 1.00 1.00 1.00 1.00 1.01 1.03 1.09 1.13 1.11 1.05 1.01 1.00 1.00 1.00 1.00 1.00 1.00 1.00 1.00 1.00 1.00 1.00 1.00 1.00 1.00 1.00 1.03 1.06 1.08 1.08 1.08 1.09 1.10 1.11 1.12 1.18 1.20 1.17 1.11 1.10 1.11 1.11 1.10 1.06 1.03 1.01 1.00 1.00 1.00 1.00 1.01 1.01 1.01 1.01 1.01 1.01 1.00 1.00 1.00 1.00 1.00 1.00 1.00 1.01 1.01 1.00 1.00 1.00 1.00 1.00 1.00 1.00 1.00 1.00 1.00 1.00 1.00 1.00 1.00 1.00 1.00 1.00 1.00 1.00 1.00 1.00 1.00 1.00 1.00 1.00 1.00 1.00 1.00 1.00 1.00 1.00 1.00 1.00 1.00 1.00 1.00 1.00 1.00 1.00 1.00 1.00 1.00 1.00 1.00 1.00 1.00 1.00 1.00 1.00 1.00 1.00 1.00 1.00 1.00 1.00 1.00 1.00 1.00 1.00 1.00 1.00 1.00 1.00 1.00 1.00 1.00 1.00 1.00 1.00 1.00 1.00 1.00 1.00 1.00 1.00 1.00 1.00 1.00 1.00 1.00 1.00 1.00 1.00 1.00 1.00 1.00 1.00 1.00 1.00 1.00 1.00 1.00 1.00 1.00 1.00 1.00 1.00 1.00 1.00 1.00 1.00 1.00 1.00 1.00 1.00 1.00 1.00 1.00 1.00 1.00 1.00
1.07 1.13 1.19 1.18 1.18 1.16 1.14 1.11 1.09 1.08 1.08 1.08 1.09 1.09 1.10 1.12 1.13 1.13 1.10 1.09 1.07 1.06 1.07 1.09 1.11 1.10 1.08 1.06 1.05 1.05 1.06 1.08 1.09 1.07 1.04 1.02 1.00 1.00 1.00 1.00 1.00 1.00 1.00 1.00 1.02 1.05 1.10 1.15 1.19 1.21 1.22 1.20 1.15 1.08 1.03 1.01 1.00 1.00 1.00 1.00 1.00 1.00 1.00 1.00 1.00 1.00 1.00 1.00 1.00 1.00 1.00 1.00 1.02 1.06 1.13 1.17 1.14 1.07 1.02 1.00 1.00 1.00 1.00 1.00 1.00 1.00 1.00 1.00 1.00 1.00 1.00 1.00 1.00 1.00 1.01 1.02 1.02 1.02 1.03 1.05 1.06 1.07 1.11 1.17 1.19 1.18 1.15 1.13 1.13 1.12 1.10 1.06 1.03 1.01 1.00 1.01 1.01 1.02 1.04 1.04 1.04 1.03 1.03 1.01 1.00 1.00 1.00 1.00 1.00 1.02 1.03 1.04 1.02 1.01 1.00 1.00 1.00 1.00 1.00 1.00 1.00 1.00 1.00 1.00 1.00 1.00 1.00 1.00 1.00 1.00 1.00 1.00 1.00 1.00 1.00 1.00 1.00 1.00 1.00 1.00 1.00 1.00 1.00 1.00 1.00 1.00 1.00 1.00 1.00 1.00 1.00 1.00 1.00 1.00 1.00 1.00 1.00 1.00 1.00 1.00 1.00 1.00 1.00 1.00 1.00 1.00 1.00 1.00 1.00 1.00 1.00 1.00 1.00 1.00 1.00 1.00 1.00 1.00 1.00 1.00 1.00 1.00 1.00 1.00 1.00 1.00 1.00 1.00 1.00 1.00 1.00 1.00 1.00 1.00 1.00 1.00 1.00 1.00 1.00 1.00 1.00 1.00 1.00 1.00 1.00 1.00 1.00 1.00 1.00 1.00 1.00 1.00 1.00 1.00 1.00 1.00 1.00 1.00 1.00 1.00 1.00 1.00 1.00 1.00
1.06 1.12 1.18 1.18 1.18 1.16 1.14 1.12 1.11 1.10 1.10 1.10 1.11 1.13 1.15 1.16 1.17 1.15 1.13 1.10 1.11 1.10 1.12 1.10 1.11 1.09 1.08 1.06 1.05 1.05 1.07 1.09 1.09 1.07 1.04 1.02 1.01 1.00 1.00 1.01 1.01 1.01 1.00 1.00 1.02 1.06 1.11 1.15 1.18 1.20 1.21 1.18 1.12 1.07 1.04 1.02 1.01 1.01 1.01 1.00 1.00 1.00 1.00 1.00 1.00 1.00 1.00 1.00 1.00 1.00 1.00 1.01 1.04 1.08 1.14 1.18 1.15 1.08 1.03 1.01 1.00 1.00 1.00 1.00 1.00 1.00 1.00 1.00 1.00 1.00 1.00 1.00 1.00 1.00 1.00 1.00 1.00 1.01 1.01 1.02 1.02 1.04 1.08 1.11 1.15 1.16 1.17 1.16 1.16 1.14 1.11 1.06 1.03 1.02 1.03 1.03 1.04 1.06 1.06 1.07 1.06 1.06 1.04 1.02 1.00 1.00 1.00 1.00 1.01 1.04 1.08 1.08 1.06 1.03 1.01 1.00 1.00 1.00 1.00 1.00 1.00 1.00 1.00 1.00 1.00 1.00 1.00 1.00 1.00 1.00 1.00 1.00 1.00 1.00 1.00 1.00 1.00 1.00 1.00 1.00 1.00 1.00 1.00 1.00 1.00 1.00 1.00 1.00 1.00 1.00 1.00 1.00 1.00 1.00 1.00 1.00 1.00 1.00 1.00 1.00 1.00 1.00 1.00 1.00 1.00 1.00 1.00 1.00 1.00 1.00 1.00 1.00 1.00 1.00 1.00 1.00 1.00 1.00 1.00 1.00 1.00 1.00 1.00 1.00 1.00 1.00 1.00 1.00 1.00 1.00 1.00 1.00 1.00 1.00 1.00 1.00 1.00 1.00 1.00 1.00 1.00 1.00 1.00 1.00 1.00 1.00 1.00 1.00 1.00 1.00 1.00 1.00 1.00 1.00 1.00 1.00 1.00 1.00 1.00 1.00 1.00 1.00 1.00 1.00
1.06 1.12 1.18 1.19 1.18 1.17 1.15 1.14 1.13 1.12 1.11 1.12 1.14 1.16 1.18 1.19 1.18 1.16 1.13 1.12 1.14 1.16 1.15 1.11 1.10 1.09 1.08 1.07 1.05 1.06 1.07 1.09 1.08 1.07 1.06 1.04 1.02 1.00 1.00 1.01 1.02 1.01 1.00 1.01 1.03 1.07 1.12 1.15 1.17 1.20 1.20 1.16 1.12 1.08 1.06 1.04 1.03 1.03 1.02 1.02 1.01 1.00 1.00 1.00 1.00 1.00 1.00 1.00 1.00 1.00 1.00 1.01 1.04 1.07 1.11 1.14 1.13 1.09 1.04 1.01 1.00 1.00 1.00 1.00 1.00 1.00 1.00 1.00 1.00 1.00 1.00 1.00 1.01 1.02 1.02 1.01 1.00 1.00 1.01 1.01 1.01 1.02 1.05 1.07 1.09 1.13 1.16 1.19 1.19 1.16 1.11 1.07 1.05 1.05 1.06 1.06 1.06 1.08 1.08 1.07 1.09 1.08 1.06 1.02 1.02 1.02 1.01 1.01 1.02 1.07 1.11 1.12 1.09 1.05 1.02 1.01 1.00 1.00 1.00 1.00 1.00 1.00 1.00 1.00 1.00 1.00 1.00 1.00 1.00 1.00 1.00 1.00 1.00 1.00 1.00 1.00 1.00 1.00 1.00 1.00 1.00 1.00 1.00 1.00 1.00 1.00 1.00 1.00 1.00 1.00 1.00 1.00 1.00 1.00 1.00 1.00 1.00 1.00 1.00 1.00 1.00 1.00 1.00 1.00 1.00 1.00 1.00 1.00 1.00 1.00 1.00 1.00 1.00 1.00 1.00 1.00 1.00 1.00 1.00 1.00 1.00 1.00 1.00 1.00 1.00 1.00 1.00 1.00 1.00 1.00 1.00 1.00 1.00 1.00 1.00 1.00 1.00 1.00 1.00 1.00 1.00 1.00 1.00 1.00 1.00 1.00 1.00 1.00 1.00 1.00 1.00 1.00 1.00 1.00 1.00 1.00 1.00 1.00 1.00 1.00 1.00 1.00 1.00 1.00
1.05 1.12 1.18 1.19 1.19 1.18 1.17 1.16 1.14 1.12 1.12 1.14 1.16 1.18 1.19 1.18 1.17 1.14 1.13 1.13 1.17 1.17 1.15 1.11 1.10 1.10 1.10 1.08 1.06 1.06 1.08 1.09 1.09 1.11 1.11 1.07 1.02 1.00 1.00 1.01 1.01 1.01 1.00 1.02 1.05 1.08 1.12 1.15 1.17 1.19 1.18 1.15 1.12 1.11 1.09 1.07 1.06 1.06 1.05 1.03 1.01 1.00 1.00 1.00 1.00 1.00 1.00 1.00 1.00 1.00 1.00 1.01 1.02 1.04 1.06 1.08 1.09 1.06 1.03 1.01 1.00 1.00 1.00 1.00 1.00 1.00 1.00 1.00 1.00 1.00 1.00 1.03 1.07 1.09 1.06 1.02 1.00 1.00 1.00 1.00 1.00 1.02 1.03 1.05 1.07 1.10 1.14 1.18 1.19 1.16 1.12 1.10 1.10 1.10 1.08 1.08 1.08 1.08 1.07 1.08 1.08 1.08 1.05 1.05 1.06 1.05 1.03 1.02 1.04 1.08 1.12 1.13 1.11 1.06 1.03 1.01 1.00 1.00 1.00 1.00 1.00 1.00 1.00 1.00 1.00 1.00 1.00 1.00 1.00 1.00 1.00 1.00 1.00 1.00 1.00 1.00 1.00 1.00 1.00 1.00 1.00 1.00 1.00 1.00 1.00 1.00 1.00 1.00 1.00 1.00 1.00 1.00 1.00 1.00 1.00 1.00 1.00 1.00 1.00 1.00 1.00 1.00 1.00 1.00 1.00 1.00 1.00 1.00 1.00 1.00 1.00 1.00 1.00 1.00 1.00 1.00 1.00 1.00 1.00 1.00 1.00 1.00 1.00 1.00 1.00 1.00 1.00 1.00 1.00 1.00 1.00 1.00 1.00 1.00 1.00 1.00 1.00 1.00 1.00 1.00 1.00 1.00 1.00 1.00 1.00 1.00 1.00 1.00 1.00 1.00 1.00 1.00 1.00 1.00 1.00 1.00 1.00 1.00 1.00 1.00 1.00 1.00 1.00 1.00
1.06 1.12 1.18 1.19 1.19 1.19 1.18 1.15 1.13 1.12 1.13 1.15 1.17 1.17 1.17 1.16 1.15 1.14 1.13 1.14 1.15 1.15 1.13 1.12 1.12 1.12 1.11 1.09 1.07 1.07 1.08 1.10 1.12 1.16 1.15 1.10 1.03 1.00 1.00 1.00 1.00 1.00 1.00 1.02 1.05 1.08 1.12 1.15 1.17 1.18 1.16 1.14 1.13 1.12 1.11 1.08 1.08 1.08 1.06 1.03 1.01 1.00 1.00 1.00 1.00 1.00 1.00 1.00 1.00 1.00 1.00 1.00 1.01 1.02 1.03 1.04 1.04 1.03 1.02 1.00 1.00 1.00 1.00 1.00 1.00 1.00 1.00 1.00 1.00 1.00 1.02 1.07 1.15 1.16 1.11 1.03 1.00 1.00 1.00 1.00 1.00 1.01 1.03 1.05 1.07 1.11 1.15 1.19 1.19 1.17 1.15 1.14 1.14 1.11 1.09 1.08 1.09 1.08 1.07 1.07 1.08 1.07 1.07 1.07 1.07 1.05 1.03 1.02 1.04 1.07 1.09 1.10 1.09 1.06 1.03 1.01 1.00 1.00 1.00 1.00 1.00 1.00 1.00 1.00 1.00 1.00 1.00 1.00 1.00 1.00 1.00 1.00 1.00 1.00 1.00 1.00 1.00 1.00 1.00 1.00 1.00 1.00 1.00 1.00 1.00 1.00 1.00 1.00 1.00 1.00 1.00 1.00 1.00 1.00 1.00 1.00 1.00 1.00 1.00 1.00 1.00 1.00 1.00 1.00 1.00 1.00 1.00 1.00 1.00 1.00 1.00 1.00 1.00 1.00 1.00 1.00 1.00 1.00 1.00 1.00 1.00 1.00 1.00 1.00 1.00 1.00 1.00 1.00 1.00 1.00 1.00 1.00 1.00 1.00 1.00 1.00 1.00 1.00 1.00 1.00 1.00 1.00 1.00 1.00 1.00 1.00 1.00 1.00 1.00 1.00 1.00 1.00 1.00 1.00 1.00 1.00 1.00 1.00 1.00 1.00 1.00 1.00 1.00 1.00
1.06 1.12 1.18 1.18 1.19 1.19 1.17 1.15 1.12 1.13 1.14 1.15 1.15 1.15 1.15 1.14 1.13 1.13 1.13 1.13 1.12 1.11 1.11 1.11 1.12 1.13 1.12 1.10 1.09 1.09 1.10 1.11 1.14 1.18 1.17 1.11 1.03 1.00 1.00 1.00 1.00 1.00 1.01 1.02 1.05 1.09 1.12 1.15 1.17 1.17 1.15 1.15 1.14 1.12 1.10 1.09 1.09 1.07 1.05 1.02 1.00 1.00 1.00 1.00 1.01 1.02 1.02 1.00 1.00 1.01 1.02 1.02 1.01 1.01 1.02 1.02 1.01 1.00 1.00 1.00 1.00 1.00 1.00 1.00 1.00 1.00 1.00 1.00 1.00 1.01 1.03 1.11 1.19 1.19 1.14 1.06 1.03 1.01 1.00 1.00 1.01 1.01 1.03 1.06 1.09 1.13 1.17 1.19 1.19 1.18 1.17 1.17 1.14 1.11 1.09 1.09 1.09 1.08 1.07 1.08 1.07 1.07 1.07 1.08 1.07 1.04 1.02 1.01 1.03 1.05 1.07 1.08 1.08 1.06 1.04 1.01 1.01 1.00 1.00 1.00 1.00 1.00 1.00 1.00 1.00 1.00 1.00 1.00 1.00 1.00 1.00 1.00 1.00 1.00 1.00 1.00 1.00 1.00 1.00 1.00 1.00 1.00 1.00 1.00 1.00 1.00 1.00 1.00 1.00 1.00 1.00 1.00 1.00 1.00 1.00 1.00 1.00 1.00 1.00 1.00 1.00 1.00 1.00 1.00 1.00 1.00 1.00 1.00 1.00 1.00 1.00 1.00 1.00 1.00 1.00 1.00 1.00 1.00 1.00 1.00 1.00 1.00 1.00 1.00 1.00 1.00 1.00 1.00 1.00 1.00 1.00 1.00 1.00 1.00 1.00 1.00 1.00 1.00 1.00 1.00 1.00 1.00 1.00 1.00 1.00 1.00 1.00 1.00 1.00 1.00 1.00 1.00 1.00 1.00 1.00 1.00 1.00 1.00 1.00 1.00 1.00 1.00 1.00 1.00
1.05 1.11 1.17 1.17 1.19 1.18 1.16 1.13 1.12 1.13 1.13 1.14 1.14 1.13 1.13 1.12 1.11 1.12 1.12 1.11 1.09 1.10 1.11 1.11 1.12 1.12 1.12 1.11 1.09 1.09 1.10 1.11 1.13 1.15 1.13 1.08 1.02 1.00 1.00 1.00 1.00 1.00 1.01 1.03 1.06 1.10 1.13 1.16 1.17 1.17 1.16 1.16 1.15 1.12 1.09 1.09 1.07 1.05 1.03 1.01 1.00 1.00 1.00 1.01 1.02 1.02 1.02 1.02 1.04 1.08 1.08 1.06 1.03 1.03 1.02 1.01 1.00 1.00 1.00 1.00 1.00 1.00 1.00 1.00 1.00 1.00 1.00 1.00 1.00 1.01 1.05 1.11 1.19 1.20 1.18 1.11 1.05 1.01 1.00 1.00 1.01 1.02 1.04 1.07 1.10 1.14 1.18 1.19 1.19 1.18 1.18 1.16 1.13 1.10 1.10 1.11 1.10 1.08 1.08 1.07 1.07 1.06 1.07 1.06 1.04 1.02 1.01 1.02 1.02 1.04 1.06 1.07 1.07 1.07 1.05 1.03 1.01 1.00 1.00 1.00 1.00 1.00 1.00 1.00 1.00 1.00 1.00 1.00 1.00 1.00 1.00 1.00 1.00 1.00 1.00 1.00 1.00 1.00 1.00 1.00 1.00 1.00 1.00 1.00 1.00 1.00 1.00 1.00 1.00 1.00 1.00 1.00 1.00 1.00 1.00 1.00 1.00 1.00 1.00 1.00 1.00 1.00 1.00 1.00 1.00 1.00 1.00 1.00 1.00 1.00 1.00 1.00 1.00 1.00 1.00 1.00 1.00 1.00 1.00 1.00 1.00 1.00 1.00 1.00 1.00 1.00 1.00 1.00 1.00 1.00 1.00 1.00 1.00 1.00 1.00 1.00 1.00 1.00 1.00 1.00 1.00 1.00 1.00 1.00 1.00 1.00 1.00 1.00 1.00 1.00 1.00 1.00 1.00 1.00 1.00 1.00 1.00 1.00 1.00 1.00 1.00 1.00 1.00 1.00
1.05 1.11 1.16 1.17 1.18 1.18 1.15 1.13 1.12 1.12 1.12 1.12 1.12 1.12 1.11 1.09 1.08 1.10 1.10 1.10 1.09 1.10 1.10 1.11 1.11 1.11 1.10 1.10 1.09 1.09 1.08 1.08 1.10 1.11 1.09 1.05 1.01 1.01 1.01 1.01 1.01 1.02 1.04 1.06 1.08 1.11 1.14 1.17 1.18 1.17 1.19 1.19 1.18 1.13 1.10 1.08 1.06 1.03 1.02 1.00 1.00 1.00 1.00 1.01 1.02 1.02 1.02 1.04 1.09 1.13 1.13 1.10 1.08 1.06 1.04 1.02 1.00 1.00 1.00 1.00 1.00 1.00 1.00 1.00 1.00 1.00 1.00 1.00 1.00 1.01 1.04 1.10 1.15 1.21 1.22 1.18 1.09 1.03 1.01 1.00 1.01 1.03 1.05 1.08 1.12 1.15 1.18 1.19 1.19 1.18 1.16 1.14 1.11 1.12 1.12 1.12 1.10 1.09 1.09 1.09 1.07 1.07 1.05 1.04 1.03 1.04 1.04 1.03 1.03 1.04 1.06 1.06 1.07 1.06 1.06 1.03 1.01 1.00 1.00 1.00 1.00 1.00 1.00 1.00 1.00 1.00 1.00 1.00 1.00 1.00 1.00 1.00 1.00 1.00 1.00 1.00 1.00 1.00 1.00 1.00 1.00 1.00 1.00 1.00 1.00 1.00 1.00 1.00 1.01 1.01 1.00 1.00 1.00 1.00 1.00 1.00 1.00 1.00 1.00 1.00 1.00 1.00 1.00 1.00 1.00 1.00 1.00 1.00 1.00 1.00 1.00 1.00 1.00 1.00 1.00 1.00 1.00 1.00 1.00 1.00 1.00 1.00 1.00 1.00 1.00 1.00 1.00 1.00 1.00 1.00 1.00 1.00 1.00 1.00 1.00 1.00 1.00 1.00 1.00 1.00 1.00 1.00 1.00 1.00 1.00 1.00 1.00 1.00 1.00 1.00 1.00 1.00 1.00 1.00 1.00 1.00 1.00 1.00 1.00 1.00 1.00 1.00 1.00 1.00
1.05 1.10 1.16 1.17 1.18 1.17 1.16 1.12 1.10 1.10 1.10 1.11 1.11 1.10 1.08 1.06 1.07 1.08 1.09 1.09 1.09 1.09 1.10 1.09 1.09 1.08 1.08 1.08 1.08 1.06 1.05 1.05 1.07 1.07 1.05 1.01 1.01 1.01 1.02 1.01 1.02 1.04 1.05 1.08 1.09 1.11 1.14 1.16 1.16 1.18 1.20 1.22 1.20 1.16 1.10 1.06 1.04 1.03 1.01 1.00 1.00 1.00 1.00 1.01 1.01 1.01 1.02 1.07 1.13 1.17 1.16 1.15 1.12 1.10 1.06 1.02 1.00 1.00 1.00 1.00 1.00 1.00 1.00 1.00 1.00 1.00 1.00 1.00 1.00 1.00 1.03 1.06 1.12 1.21 1.25 1.22 1.12 1.04 1.01 1.01 1.02 1.04 1.06 1.09 1.12 1.16 1.18 1.19 1.18 1.17 1.14 1.13 1.12 1.14 1.14 1.13 1.11 1.11 1.12 1.11 1.09 1.07 1.05 1.05 1.06 1.09 1.08 1.06 1.03 1.03 1.05 1.05 1.05 1.06 1.05 1.04 1.01 1.00 1.00 1.00 1.00 1.00 1.00 1.00 1.00 1.00 1.00 1.00 1.00 1.00 1.00 1.00 1.00 1.00 1.00 1.00 1.00 1.00 1.00 1.00 1.00 1.00 1.00 1.00 1.00 1.00 1.02 1.03 1.04 1.03 1.01 1.01 1.00 1.00 1.00 1.00 1.00 1.00 1.00 1.00 1.00 1.00 1.00 1.00 1.00 1.00 1.00 1.00 1.00 1.00 1.00 1.00 1.00 1.00 1.00 1.00 1.00 1.00 1.00 1.00 1.00 1.00 1.00 1.00 1.00 1.00 1.00 1.00 1.00 1.00 1.00 1.00 1.00 1.00 1.00 1.00 1.00 1.00 1.00 1.00 1.00 1.00 1.00 1.00 1.00 1.00 1.00 1.00 1.00 1.00 1.00 1.00 1.00 1.00 1.00 1.00 1.00 1.00 1.00 1.00 1.00 1.00 1.00 1.00
1.05 1.10 1.15 1.17 1.17 1.17 1.15 1.11 1.09 1.09 1.09 1.10 1.10 1.08 1.05 1.05 1.06 1.08 1.08 1.09 1.09 1.08 1.08 1.07 1.07 1.07 1.07 1.06 1.05 1.03 1.02 1.03 1.05 1.04 1.02 1.01 1.02 1.02 1.02 1.01 1.02 1.04 1.06 1.08 1.10 1.11 1.12 1.13 1.15 1.17 1.20 1.22 1.22 1.16 1.10 1.05 1.03 1.02 1.01 1.00 1.00 1.00 1.00 1.00 1.00 1.01 1.05 1.10 1.14 1.15 1.15 1.16 1.15 1.11 1.06 1.02 1.00 1.00 1.00 1.00 1.00 1.00 1.00 1.00 1.00 1.00 1.00 1.00 1.00 1.00 1.02 1.03 1.06 1.13 1.18 1.18 1.11 1.04 1.02 1.02 1.02 1.04 1.06 1.10 1.13 1.15 1.16 1.17 1.17 1.16 1.14 1.14 1.14 1.15 1.15 1.13 1.12 1.14 1.14 1.13 1.12 1.11 1.09 1.07 1.09 1.12 1.10 1.05 1.02 1.02 1.03 1.02 1.04 1.04 1.04 1.02 1.01 1.00 1.00 1.00 1.00 1.00 1.00 1.00 1.00 1.00 1.00 1.00 1.00 1.00 1.00 1.00 1.00 1.00 1.00 1.00 1.00 1.00 1.00 1.00 1.00 1.00 1.00 1.00 1.00 1.00 1.02 1.04 1.06 1.05 1.03 1.02 1.00 1.00 1.00 1.00 1.00 1.00 1.00 1.00 1.00 1.00 1.00 1.00 1.00 1.00 1.00 1.00 1.00 1.00 1.00 1.00 1.00 1.00 1.00 1.00 1.00 1.00 1.00 1.00 1.00 1.00 1.00 1.00 1.00 1.00 1.00 1.00 1.00 1.00 1.00 1.00 1.00 1.00 1.00 1.00 1.00 1.00 1.00 1.00 1.00 1.00 1.00 1.00 1.00 1.00 1.00 1.00 1.00 1.00 1.00 1.00 1.00 1.00 1.00 1.00 1.00 1.00 1.00 1.00 1.00 1.00 1.00 1.00
1.05 1.10 1.15 1.16 1.17 1.16 1.13 1.10 1.08 1.08 1.10 1.10 1.09 1.05 1.04 1.05 1.07 1.08 1.08 1.08 1.08 1.07 1.06 1.05 1.05 1.05 1.05 1.04 1.02 1.01 1.01 1.02 1.04 1.04 1.03 1.02 1.02 1.02 1.01 1.01 1.01 1.02 1.04 1.07 1.09 1.10 1.10 1.10 1.12 1.15 1.17 1.22 1.20 1.16 1.08 1.05 1.03 1.03 1.01 1.00 1.00 1.00 1.00 1.00 1.00 1.01 1.05 1.10 1.12 1.13 1.14 1.16 1.15 1.10 1.05 1.01 1.00 1.00 1.00 1.00 1.00 1.00 1.00 1.00 1.00 1.00 1.00 1.00 1.00 1.00 1.00 1.01 1.01 1.06 1.11 1.11 1.08 1.05 1.05 1.04 1.03 1.04 1.07 1.11 1.13 1.13 1.14 1.16 1.18 1.17 1.15 1.15 1.15 1.15 1.15 1.14 1.15 1.14 1.14 1.13 1.14 1.13 1.11 1.09 1.11 1.11 1.08 1.04 1.01 1.01 1.01 1.02 1.02 1.04 1.02 1.01 1.00 1.00 1.00 1.00 1.00 1.00 1.00 1.00 1.00 1.00 1.00 1.00 1.00 1.00 1.00 1.00 1.00 1.00 1.00 1.00 1.00 1.00 1.00 1.00 1.00 1.00 1.00 1.00 1.00 1.00 1.02 1.04 1.06 1.05 1.04 1.02 1.00 1.00 1.00 1.00 1.00 1.00 1.00 1.00 1.00 1.00 1.00 1.00 1.00 1.00 1.00 1.00 1.00 1.00 1.00 1.00 1.00 1.00 1.00 1.00 1.00 1.00 1.00 1.00 1.00 1.00 1.00 1.00 1.00 1.00 1.00 1.00 1.00 1.00 1.00 1.00 1.00 1.00 1.00 1.00 1.00 1.00 1.00 1.00 1.00 1.00 1.00 1.00 1.00 1.00 1.00 1.00 1.00 1.00 1.00 1.00 1.00 1.00 1.00 1.00 1.00 1.00 1.00 1.00 1.00 1.00 1.00 1.00
1.04 1.09 1.15 1.16 1.15 1.14 1.11 1.09 1.08 1.09 1.10 1.09 1.07 1.05 1.05 1.06 1.07 1.07 1.08 1.07 1.06 1.04 1.04 1.04 1.05 1.04 1.03 1.01 1.00 1.00 1.01 1.03 1.05 1.05 1.04 1.02 1.01 1.01 1.00 1.00 1.00 1.02 1.05 1.07 1.08 1.07 1.07 1.08 1.10 1.12 1.16 1.20 1.19 1.14 1.09 1.06 1.04 1.02 1.01 1.00 1.00 1.00 1.00 1.00 1.00 1.02 1.06 1.09 1.11 1.11 1.12 1.13 1.11 1.07 1.02 1.01 1.00 1.00 1.00 1.00 1.00 1.00 1.00 1.00 1.00 1.00 1.00 1.00 1.00 1.00 1.00 1.00 1.00 1.01 1.03 1.03 1.05 1.07 1.09 1.07 1.05 1.06 1.09 1.11 1.11 1.11 1.13 1.16 1.18 1.16 1.15 1.14 1.14 1.15 1.15 1.17 1.16 1.15 1.12 1.13 1.15 1.13 1.11 1.10 1.10 1.08 1.06 1.03 1.02 1.00 1.00 1.01 1.02 1.02 1.01 1.00 1.00 1.00 1.00 1.00 1.00 1.00 1.00 1.00 1.00 1.00 1.00 1.00 1.00 1.00 1.00 1.00 1.00 1.00 1.00 1.00 1.00 1.00 1.00 1.00 1.00 1.00 1.00 1.00 1.00 1.00 1.01 1.02 1.03 1.04 1.03 1.01 1.00 1.00 1.00 1.00 1.00 1.00 1.00 1.00 1.00 1.00 1.00 1.01 1.02 1.03 1.02 1.02 1.01 1.00 1.00 1.00 1.00 1.00 1.00 1.00 1.00 1.00 1.00 1.00 1.00 1.00 1.00 1.00 1.00 1.00 1.00 1.00 1.00 1.00 1.00 1.00 1.00 1.00 1.00 1.00 1.00 1.00 1.00 1.00 1.00 1.00 1.00 1.00 1.00 1.00 1.00 1.00 1.00 1.00 1.00 1.00 1.00 1.00 1.00 1.00 1.00 1.00 1.00 1.00 1.00 1.00 1.00 1.00
1.04 1.09 1.14 1.14 1.14 1.12 1.10 1.09 1.09 1.10 1.10 1.09 1.06 1.05 1.06 1.06 1.06 1.06 1.06 1.05 1.04 1.03 1.04 1.04 1.04 1.02 1.01 1.00 1.00 1.00 1.01 1.03 1.05 1.04 1.03 1.01 1.00 1.00 1.00 1.00 1.01 1.03 1.05 1.06 1.05 1.05 1.06 1.07 1.08 1.11 1.15 1.18 1.20 1.16 1.12 1.07 1.05 1.04 1.02 1.01 1.00 1.00 1.00 1.00 1.01 1.02 1.04 1.06 1.07 1.08 1.10 1.10 1.07 1.04 1.01 1.01 1.01 1.01 1.00 1.00 1.00 1.00 1.00 1.00 1.00 1.00 1.00 1.00 1.00 1.00 1.00 1.00 1.00 1.01 1.01 1.01 1.04 1.08 1.11 1.09 1.07 1.08 1.09 1.10 1.09 1.10 1.14 1.17 1.18 1.16 1.14 1.13 1.14 1.14 1.15 1.16 1.15 1.12 1.11 1.12 1.13 1.13 1.11 1.11 1.10 1.08 1.08 1.06 1.03 1.00 1.00 1.01 1.01 1.01 1.00 1.00 1.00 1.00 1.00 1.00 1.00 1.00 1.00 1.00 1.00 1.00 1.00 1.00 1.00 1.00 1.00 1.00 1.00 1.00 1.00 1.00 1.00 1.00 1.00 1.00 1.00 1.00 1.00 1.00 1.00 1.00 1.00 1.01 1.01 1.01 1.01 1.00 1.00 1.00 1.00 1.00 1.00 1.00 1.00 1.00 1.00 1.00 1.02 1.05 1.08 1.08 1.07 1.04 1.02 1.01 1.00 1.00 1.00 1.00 1.00 1.00 1.00 1.00 1.00 1.00 1.00 1.00 1.00 1.00 1.00 1.00 1.00 1.00 1.00 1.00 1.00 1.00 1.00 1.00 1.00 1.00 1.00 1.00 1.00 1.00 1.00 1.00 1.00 1.00 1.00 1.00 1.00 1.00 1.00 1.00 1.00 1.00 1.00 1.00 1.00 1.00 1.00 1.00 1.00 1.00 1.00 1.00 1.00 1.00
1.04 1.09 1.13 1.13 1.12 1.11 1.10 1.10 1.10 1.11 1.10 1.07 1.06 1.06 1.07 1.08 1.07 1.05 1.03 1.03 1.02 1.03 1.05 1.05 1.03 1.01 1.00 1.00 1.00 1.00 1.02 1.03 1.04 1.03 1.01 1.00 1.00 1.00 1.00 1.01 1.02 1.03 1.04 1.04 1.03 1.04 1.05 1.05 1.06 1.10 1.14 1.17 1.18 1.16 1.13 1.10 1.08 1.07 1.04 1.02 1.00 1.00 1.00 1.00 1.01 1.02 1.03 1.04 1.04 1.06 1.07 1.06 1.03 1.01 1.01 1.02 1.02 1.01 1.01 1.01 1.00 1.00 1.00 1.00 1.00 1.00 1.00 1.00 1.00 1.00 1.00 1.00 1.00 1.00 1.00 1.00 1.03 1.06 1.09 1.10 1.11 1.11 1.10 1.09 1.09 1.11 1.14 1.15 1.16 1.15 1.14 1.13 1.14 1.14 1.14 1.15 1.13 1.11 1.10 1.12 1.13 1.13 1.12 1.11 1.11 1.13 1.14 1.11 1.05 1.01 1.01 1.01 1.00 1.00 1.00 1.00 1.00 1.00 1.00 1.00 1.00 1.00 1.00 1.00 1.00 1.00 1.00 1.01 1.01 1.01 1.00 1.00 1.00 1.00 1.00 1.00 1.00 1.00 1.00 1.00 1.00 1.00 1.00 1.00 1.00 1.00 1.00 1.00 1.00 1.00 1.00 1.00 1.00 1.00 1.00 1.00 1.00 1.00 1.00 1.00 1.00 1.01 1.06 1.12 1.16 1.16 1.12 1.08 1.04 1.01 1.00 1.00 1.00 1.00 1.00 1.00 1.00 1.00 1.00 1.00 1.00 1.00 1.00 1.00 1.00 1.00 1.00 1.00 1.00 1.00 1.00 1.00 1.00 1.00 1.00 1.00 1.00 1.00 1.00 1.00 1.00 1.00 1.00 1.00 1.00 1.00 1.00 1.00 1.00 1.00 1.00 1.00 1.00 1.00 1.00 1.00 1.00 1.00 1.00 1.00 1.00 1.00 1.00 1.00
1.04 1.08 1.12 1.12 1.12 1.12 1.11 1.11 1.11 1.11 1.09 1.08 1.08 1.10 1.12 1.12 1.09 1.06 1.04 1.03 1.03 1.05 1.06 1.05 1.02 1.00 1.00 1.00 1.00 1.00 1.02 1.02 1.02 1.01 1.00 1.00 1.00 1.02 1.02 1.03 1.03 1.03 1.03 1.02 1.03 1.03 1.04 1.03 1.05 1.09 1.13 1.14 1.16 1.16 1.16 1.14 1.13 1.10 1.06 1.03 1.01 1.00 1.00 1.00 1.01 1.01 1.01 1.02 1.03 1.05 1.05 1.03 1.01 1.01 1.02 1.03 1.03 1.03 1.02 1.02 1.01 1.00 1.00 1.00 1.00 1.00 1.00 1.00 1.00 1.00 1.00 1.00 1.00 1.00 1.00 1.00 1.00 1.03 1.06 1.08 1.09 1.09 1.08 1.08 1.09 1.11 1.12 1.13 1.13 1.13 1.14 1.15 1.15 1.14 1.14 1.12 1.10 1.09 1.09 1.11 1.13 1.14 1.13 1.12 1.14 1.18 1.19 1.14 1.07 1.03 1.02 1.01 1.00 1.00 1.00 1.00 1.00 1.00 1.00 1.00 1.00 1.00 1.00 1.00 1.00 1.01 1.03 1.04 1.03 1.01 1.00 1.00 1.00 1.00 1.00 1.00 1.00 1.00 1.00 1.00 1.00 1.00 1.00 1.00 1.00 1.00 1.00 1.00 1.00 1.00 1.00 1.00 1.00 1.00 1.00 1.00 1.00 1.00 1.00 1.00 1.01 1.04 1.11 1.18 1.22 1.21 1.16 1.10 1.05 1.01 1.00 1.00 1.00 1.00 1.00 1.00 1.00 1.00 1.00 1.00 1.00 1.00 1.00 1.00 1.00 1.00 1.00 1.00 1.00 1.00 1.00 1.00 1.00 1.00 1.00 1.00 1.00 1.00 1.00 1.00 1.00 1.00 1.00 1.00 1.00 1.00 1.00 1.00 1.00 1.00 1.00 1.00 1.00 1.00 1.00 1.00 1.00 1.00 1.00 1.00 1.00 1.00 1.00 1.00
1.05 1.08 1.13 1.12 1.14 1.17 1.19 1.17 1.14 1.11 1.11 1.11 1.12 1.14 1.16 1.16 1.14 1.11 1.08 1.06 1.05 1.05 1.05 1.03 1.01 1.00 1.00 1.00 1.00 1.01 1.01 1.01 1.01 1.00 1.00 1.00 1.01 1.04 1.05 1.05 1.04 1.03 1.03 1.02 1.03 1.03 1.02 1.03 1.05 1.08 1.10 1.11 1.11 1.13 1.15 1.17 1.16 1.13 1.07 1.03 1.01 1.00 1.00 1.00 1.00 1.00 1.00 1.01 1.03 1.03 1.02 1.01 1.01 1.02 1.04 1.05 1.06 1.05 1.04 1.03 1.01 1.00 1.00 1.00 1.00 1.00 1.00 1.00 1.00 1.00 1.00 1.00 1.00 1.00 1.00 1.00 1.00 1.01 1.04 1.05 1.07 1.07 1.08 1.08 1.09 1.10 1.10 1.09 1.10 1.11 1.14 1.16 1.17 1.16 1.13 1.11 1.09 1.08 1.09 1.11 1.12 1.12 1.11 1.13 1.16 1.21 1.20 1.15 1.08 1.05 1.03 1.02 1.01 1.01 1.01 1.00 1.00 1.00 1.00 1.00 1.00 1.00 1.00 1.00 1.01 1.03 1.07 1.07 1.05 1.01 1.00 1.00 1.00 1.00 1.00 1.00 1.00 1.00 1.00 1.00 1.00 1.00 1.00 1.00 1.00 1.00 1.00 1.00 1.00 1.00 1.00 1.00 1.00 1.00 1.00 1.00 1.00 1.00 1.00 1.00 1.02 1.07 1.14 1.23 1.26 1.25 1.18 1.10 1.05 1.01 1.00 1.00 1.00 1.00 1.00 1.00 1.00 1.00 1.00 1.00 1.00 1.00 1.00 1.00 1.00 1.00 1.00 1.00 1.00 1.00 1.00 1.00 1.00 1.00 1.00 1.00 1.00 1.00 1.00 1.00 1.00 1.00 1.00 1.00 1.00 1.00 1.00 1.00 1.00 1.00 1.00 1.00 1.00 1.00 1.00 1.00 1.00 1.00 1.00 1.00 1.00 1.00 1.00 1.00
1.06 1.10 1.14 1.13 1.17 1.20 1.22 1.20 1.16 1.13 1.13 1.13 1.14 1.16 1.18 1.18 1.16 1.14 1.11 1.08 1.06 1.04 1.02 1.01 1.00 1.00 1.00 1.00 1.00 1.00 1.00 1.00 1.00 1.00 1.00 1.01 1.02 1.05 1.06 1.06 1.04 1.05 1.05 1.05 1.05 1.03 1.02 1.03 1.06 1.07 1.07 1.08 1.09 1.12 1.15 1.16 1.14 1.10 1.05 1.02 1.00 1.00 1.00 1.00 1.00 1.00 1.00 1.01 1.02 1.01 1.01 1.01 1.02 1.04 1.06 1.08 1.08 1.07 1.05 1.03 1.01 1.00 1.00 1.00 1.00 1.00 1.00 1.00 1.00 1.00 1.00 1.00 1.00 1.00 1.00 1.00 1.01 1.02 1.02 1.03 1.03 1.04 1.06 1.07 1.08 1.08 1.08 1.08 1.08 1.09 1.12 1.16 1.18 1.17 1.14 1.11 1.10 1.09 1.10 1.10 1.11 1.12 1.13 1.16 1.18 1.20 1.18 1.14 1.09 1.07 1.05 1.03 1.02 1.01 1.01 1.00 1.00 1.00 1.00 1.00 1.00 1.00 1.00 1.00 1.01 1.04 1.07 1.07 1.04 1.00 1.00 1.00 1.00 1.00 1.00 1.00 1.00 1.00 1.00 1.00 1.00 1.00 1.00 1.00 1.00 1.00 1.00 1.00 1.00 1.00 1.00 1.00 1.00 1.00 1.00 1.00 1.00 1.00 1.00 1.01 1.03 1.09 1.16 1.22 1.26 1.26 1.19 1.11 1.03 1.00 1.00 1.00 1.00 1.00 1.00 1.00 1.00 1.00 1.00 1.00 1.00 1.00 1.00 1.00 1.00 1.00 1.00 1.00 1.00 1.00 1.00 1.00 1.00 1.00 1.00 1.00 1.00 1.00 1.00 1.00 1.00 1.00 1.00 1.00 1.00 1.00 1.00 1.00 1.00 1.00 1.00 1.00 1.00 1.00 1.00 1.00 1.00 1.00 1.00 1.00 1.00 1.00 1.00 1.00
1.06 1.11 1.15 1.14 1.17 1.21 1.23 1.21 1.18 1.15 1.14 1.14 1.14 1.14 1.14 1.14 1.14 1.13 1.12 1.08 1.04 1.02 1.00 1.00 1.00 1.00 1.00 1.00 1.00 1.00 1.00 1.00 1.00 1.00 1.00 1.01 1.03 1.05 1.05 1.05 1.05 1.06 1.08 1.09 1.08 1.05 1.03 1.04 1.06 1.06 1.06 1.06 1.08 1.10 1.11 1.11 1.09 1.06 1.03 1.01 1.00 1.00 1.00 1.00 1.00 1.00 1.00 1.01 1.01 1.00 1.01 1.01 1.03 1.05 1.08 1.09 1.10 1.08 1.05 1.03 1.01 1.01 1.01 1.01 1.00 1.00 1.00 1.00 1.00 1.00 1.00 1.00 1.00 1.00 1.00 1.00 1.01 1.01 1.02 1.02 1.03 1.04 1.05 1.06 1.06 1.06 1.06 1.07 1.07 1.07 1.10 1.14 1.17 1.17 1.14 1.12 1.12 1.12 1.11 1.11 1.11 1.15 1.17 1.18 1.18 1.18 1.16 1.13 1.10 1.08 1.07 1.05 1.03 1.02 1.01 1.00 1.00 1.00 1.00 1.00 1.00 1.00 1.00 1.00 1.02 1.04 1.05 1.03 1.01 1.00 1.01 1.01 1.00 1.00 1.00 1.00 1.00 1.00 1.00 1.00 1.00 1.00 1.00 1.00 1.00 1.00 1.00 1.00 1.00 1.00 1.00 1.00 1.00 1.00 1.00 1.00 1.00 1.00 1.00 1.01 1.04 1.09 1.15 1.20 1.23 1.23 1.17 1.09 1.02 1.00 1.00 1.00 1.00 1.00 1.00 1.00 1.00 1.00 1.00 1.00 1.00 1.00 1.00 1.00 1.00 1.00 1.00 1.00 1.00 1.00 1.00 1.00 1.00 1.00 1.00 1.00 1.00 1.00 1.00 1.00 1.00 1.00 1.00 1.00 1.00 1.00 1.00 1.00 1.00 1.00 1.00 1.00 1.00 1.00 1.00 1.00 1.00 1.00 1.00 1.00 1.00 1.00 1.00 1.00
1.05 1.11 1.17 1.16 1.16 1.16 1.17 1.16 1.15 1.14 1.12 1.10 1.10 1.10 1.09 1.08 1.08 1.08 1.07 1.05 1.03 1.00 1.00 1.00 1.00 1.00 1.00 1.00 1.00 1.00 1.00 1.00 1.00 1.00 1.01 1.02 1.03 1.03 1.04 1.04 1.05 1.07 1.09 1.11 1.10 1.07 1.05 1.04 1.05 1.05 1.04 1.04 1.05 1.06 1.07 1.06 1.04 1.02 1.01 1.00 1.00 1.00 1.00 1.00 1.00 1.00 1.00 1.00 1.00 1.00 1.01 1.02 1.04 1.07 1.09 1.10 1.10 1.08 1.05 1.03 1.02 1.03 1.03 1.02 1.01 1.00 1.00 1.00 1.00 1.00 1.00 1.00 1.00 1.00 1.00 1.00 1.01 1.01 1.02 1.02 1.03 1.03 1.04 1.04 1.05 1.05 1.05 1.06 1.05 1.06 1.09 1.13 1.16 1.16 1.14 1.14 1.15 1.15 1.14 1.12 1.13 1.17 1.18 1.18 1.16 1.15 1.14 1.13 1.12 1.10 1.08 1.06 1.04 1.03 1.01 1.00 1.00 1.00 1.00 1.00 1.00 1.00 1.00 1.01 1.02 1.03 1.02 1.01 1.01 1.02 1.02 1.01 1.01 1.00 1.00 1.00 1.00 1.00 1.00 1.00 1.00 1.00 1.00 1.00 1.00 1.00 1.00 1.00 1.00 1.00 1.00 1.00 1.00 1.00 1.00 1.00 1.00 1.00 1.00 1.01 1.03 1.08 1.13 1.15 1.16 1.16 1.11 1.06 1.01 1.00 1.00 1.00 1.00 1.00 1.00 1.00 1.00 1.00 1.00 1.00 1.00 1.00 1.00 1.00 1.00 1.00 1.00 1.00 1.00 1.00 1.00 1.00 1.00 1.00 1.00 1.00 1.00 1.00 1.00 1.00 1.00 1.00 1.00 1.00 1.00 1.00 1.00 1.00 1.00 1.00 1.00 1.00 1.00 1.00 1.00 1.00 1.00 1.00 1.00 1.00 1.00 1.00 1.00 1.00
1.04 1.10 1.15 1.15 1.13 1.13 1.14 1.14 1.12 1.10 1.07 1.06 1.06 1.06 1.05 1.04 1.04 1.04 1.04 1.02 1.01 1.00 1.00 1.00 1.00 1.00 1.00 1.00 1.00 1.00 1.00 1.00 1.00 1.00 1.01 1.02 1.02 1.02 1.02 1.02 1.04 1.06 1.08 1.11 1.11 1.09 1.06 1.04 1.04 1.04 1.03 1.02 1.02 1.03 1.04 1.03 1.01 1.00 1.00 1.00 1.00 1.00 1.00 1.00 1.00 1.00 1.00 1.00 1.00 1.01 1.02 1.03 1.05 1.07 1.09 1.09 1.09 1.07 1.04 1.04 1.04 1.06 1.06 1.04 1.02 1.01 1.00 1.00 1.00 1.00 1.00 1.00 1.00 1.00 1.00 1.00 1.00 1.01 1.02 1.02 1.02 1.02 1.03 1.03 1.04 1.04 1.05 1.04 1.04 1.05 1.09 1.13 1.15 1.15 1.15 1.16 1.18 1.18 1.17 1.16 1.16 1.15 1.17 1.15 1.14 1.13 1.13 1.13 1.13 1.11 1.09 1.07 1.05 1.03 1.02 1.00 1.00 1.00 1.00 1.00 1.00 1.00 1.00 1.02 1.02 1.02 1.01 1.01 1.03 1.05 1.05 1.03 1.02 1.02 1.02 1.02 1.02 1.01 1.00 1.00 1.00 1.00 1.00 1.00 1.00 1.00 1.00 1.00 1.00 1.00 1.00 1.00 1.00 1.00 1.00 1.00 1.00 1.00 1.00 1.00 1.02 1.06 1.09 1.10 1.09 1.08 1.05 1.02 1.00 1.00 1.00 1.00 1.00 1.00 1.00 1.00 1.00 1.00 1.00 1.00 1.00 1.00 1.00 1.00 1.00 1.00 1.00 1.00 1.00 1.00 1.00 1.00 1.00 1.00 1.00 1.00 1.00 1.00 1.00 1.00 1.00 1.00 1.00 1.00 1.00 1.00 1.00 1.00 1.00 1.00 1.00 1.00 1.00 1.00 1.00 1.00 1.00 1.00 1.00 1.00 1.00 1.00 1.00 1.00
1.04 1.09 1.13 1.13 1.12 1.12 1.13 1.12 1.10 1.08 1.06 1.06 1.06 1.05 1.03 1.02 1.03 1.03 1.02 1.01 1.00 1.00 1.00 1.00 1.00 1.00 1.00 1.00 1.00 1.00 1.00 1.00 1.00 1.00 1.01 1.01 1.02 1.01 1.01 1.01 1.03 1.05 1.07 1.09 1.10 1.09 1.07 1.06 1.05 1.05 1.03 1.02 1.03 1.02 1.02 1.01 1.00 1.01 1.01 1.01 1.00 1.00 1.00 1.00 1.00 1.00 1.00 1.00 1.01 1.01 1.02 1.04 1.06 1.08 1.09 1.09 1.08 1.06 1.05 1.07 1.08 1.09 1.08 1.06 1.03 1.01 1.00 1.00 1.00 1.00 1.00 1.00 1.00 1.00 1.00 1.00 1.01 1.01 1.01 1.01 1.01 1.01 1.02 1.03 1.03 1.04 1.03 1.03 1.04 1.07 1.11 1.13 1.14 1.14 1.15 1.16 1.18 1.18 1.21 1.21 1.19 1.15 1.13 1.12 1.12 1.12 1.13 1.13 1.13 1.11 1.10 1.08 1.06 1.04 1.02 1.01 1.00 1.01 1.01 1.01 1.00 1.00 1.00 1.02 1.02 1.01 1.01 1.03 1.06 1.09 1.09 1.07 1.05 1.06 1.06 1.06 1.04 1.02 1.01 1.00 1.00 1.00 1.00 1.00 1.00 1.00 1.00 1.00 1.00 1.00 1.00 1.00 1.00 1.00 1.00 1.00 1.00 1.00 1.00 1.00 1.02 1.04 1.05 1.04 1.03 1.02 1.01 1.00 1.00 1.00 1.00 1.00 1.00 1.00 1.00 1.00 1.00 1.00 1.00 1.00 1.00 1.00 1.00 1.00 1.00 1.00 1.00 1.00 1.00 1.00 1.00 1.00 1.00 1.00 1.00 1.00 1.00 1.00 1.00 1.00 1.00 1.00 1.00 1.00 1.00 1.00 1.00 1.00 1.00 1.00 1.00 1.00 1.00 1.00 1.00 1.00 1.00 1.00 1.00 1.00 1.00 1.00 1.00 1.00
1.05 1.09 1.12 1.11 1.11 1.11 1.11 1.11 1.10 1.09 1.09 1.08 1.08 1.07 1.05 1.05 1.05 1.05 1.03 1.01 1.00 1.00 1.00 1.00 1.00 1.00 1.00 1.00 1.00 1.00 1.00 1.00 1.00 1.00 1.01 1.01 1.01 1.00 1.00 1.01 1.02 1.04 1.06 1.08 1.09 1.08 1.07 1.07 1.07 1.08 1.06 1.05 1.04 1.02 1.01 1.00 1.01 1.02 1.02 1.01 1.01 1.01 1.01 1.00 1.00 1.00 1.02 1.02 1.02 1.01 1.02 1.04 1.06 1.08 1.09 1.09 1.08 1.07 1.08 1.10 1.11 1.11 1.10 1.07 1.04 1.02 1.00 1.00 1.00 1.00 1.00 1.00 1.00 1.00 1.00 1.00 1.01 1.01 1.01 1.00 1.01 1.01 1.02 1.02 1.03 1.03 1.03 1.03 1.06 1.09 1.11 1.12 1.12 1.13 1.14 1.15 1.15 1.16 1.19 1.21 1.20 1.16 1.13 1.11 1.11 1.11 1.12 1.12 1.12 1.11 1.10 1.09 1.06 1.04 1.02 1.01 1.02 1.04 1.04 1.02 1.01 1.00 1.00 1.01 1.01 1.01 1.03 1.06 1.09 1.11 1.11 1.10 1.10 1.11 1.11 1.10 1.07 1.04 1.01 1.00 1.00 1.00 1.00 1.00 1.00 1.00 1.00 1.00 1.00 1.00 1.00 1.00 1.00 1.00 1.00 1.00 1.00 1.00 1.00 1.00 1.01 1.02 1.02 1.01 1.00 1.00 1.00 1.00 1.00 1.00 1.00 1.00 1.00 1.00 1.00 1.00 1.00 1.00 1.00 1.00 1.00 1.00 1.00 1.00 1.00 1.00 1.00 1.00 1.00 1.00 1.00 1.00 1.00 1.00 1.00 1.00 1.00 1.00 1.00 1.00 1.00 1.00 1.00 1.00 1.00 1.00 1.00 1.00 1.00 1.00 1.00 1.00 1.00 1.00 1.00 1.00 1.00 1.00 1.00 1.00 1.00 1.00 1.00 1.00
1.05 1.08 1.13 1.11 1.11 1.10 1.11 1.12 1.12 1.13 1.14 1.13 1.13 1.11 1.09 1.08 1.09 1.08 1.05 1.02 1.01 1.00 1.00 1.00 1.00 1.00 1.00 1.00 1.00 1.00 1.00 1.00 1.00 1.00 1.00 1.00 1.00 1.00 1.00 1.01 1.02 1.04 1.05 1.07 1.07 1.07 1.06 1.08 1.09 1.10 1.09 1.07 1.04 1.02 1.01 1.01 1.01 1.02 1.02 1.02 1.01 1.01 1.01 1.00 1.00 1.01 1.03 1.04 1.03 1.02 1.03 1.05 1.07 1.09 1.09 1.09 1.08 1.08 1.10 1.12 1.13 1.13 1.12 1.10 1.07 1.03 1.02 1.01 1.01 1.00 1.00 1.00 1.00 1.00 1.00 1.00 1.00 1.00 1.00 1.00 1.00 1.01 1.01 1.02 1.02 1.02 1.02 1.04 1.07 1.09 1.09 1.10 1.10 1.11 1.12 1.12 1.11 1.10 1.14 1.17 1.18 1.16 1.13 1.11 1.10 1.11 1.11 1.11 1.11 1.11 1.10 1.09 1.06 1.04 1.02 1.02 1.04 1.05 1.06 1.03 1.02 1.00 1.02 1.02 1.03 1.03 1.05 1.07 1.09 1.11 1.12 1.13 1.13 1.15 1.14 1.12 1.08 1.05 1.03 1.01 1.00 1.00 1.00 1.00 1.00 1.00 1.00 1.00 1.00 1.00 1.00 1.00 1.00 1.00 1.00 1.00 1.00 1.00 1.00 1.00 1.01 1.01 1.00 1.00 1.00 1.00 1.00 1.00 1.00 1.00 1.00 1.00 1.00 1.00 1.00 1.00 1.00 1.00 1.00 1.00 1.00 1.00 1.00 1.00 1.00 1.00 1.00 1.00 1.00 1.00 1.00 1.00 1.00 1.00 1.00 1.00 1.00 1.00 1.00 1.00 1.00 1.00 1.00 1.00 1.00 1.00 1.00 1.00 1.00 1.00 1.00 1.00 1.00 1.00 1.00 1.00 1.00 1.00 1.00 1.00 1.00 1.00 1.00 1.00
1.06 1.11 1.15 1.12 1.10 1.11 1.13 1.13 1.15 1.16 1.18 1.18 1.17 1.14 1.11 1.11 1.11 1.10 1.05 1.03 1.00 1.00 1.00 1.00 1.00 1.00 1.00 1.00 1.00 1.00 1.00 1.00 1.00 1.00 1.00 1.00 1.00 1.00 1.00 1.01 1.02 1.03 1.05 1.06 1.06 1.05 1.06 1.08 1.10 1.10 1.09 1.06 1.03 1.03 1.03 1.02 1.01 1.01 1.01 1.02 1.02 1.02 1.01 1.00 1.01 1.03 1.06 1.05 1.03 1.02 1.04 1.06 1.08 1.09 1.10 1.09 1.09 1.10 1.11 1.12 1.13 1.14 1.15 1.13 1.09 1.06 1.03 1.02 1.01 1.00 1.00 1.00 1.00 1.00 1.00 1.00 1.00 1.00 1.00 1.00 1.00 1.01 1.01 1.01 1.01 1.02 1.03 1.05 1.07 1.07 1.07 1.07 1.08 1.09 1.10 1.09 1.06 1.06 1.08 1.10 1.12 1.12 1.12 1.10 1.09 1.10 1.10 1.10 1.10 1.10 1.10 1.08 1.06 1.04 1.02 1.02 1.04 1.06 1.05 1.03 1.01 1.00 1.02 1.05 1.06 1.06 1.05 1.06 1.08 1.09 1.11 1.12 1.14 1.16 1.15 1.13 1.10 1.07 1.04 1.01 1.00 1.00 1.01 1.01 1.01 1.00 1.00 1.00 1.00 1.00 1.00 1.00 1.00 1.00 1.00 1.00 1.00 1.00 1.00 1.00 1.00 1.00 1.00 1.00 1.00 1.00 1.00 1.00 1.00 1.00 1.00 1.00 1.00 1.00 1.00 1.00 1.00 1.00 1.00 1.00 1.00 1.00 1.00 1.00 1.00 1.00 1.00 1.00 1.00 1.00 1.00 1.00 1.00 1.00 1.00 1.00 1.00 1.00 1.00 1.00 1.00 1.00 1.00 1.00 1.00 1.00 1.00 1.00 1.00 1.00 1.00 1.00 1.00 1.00 1.00 1.00 1.00 1.00 1.00 1.00 1.00 1.00 1.00 1.00
1.04 1.13 1.16 1.15 1.11 1.12 1.13 1.14 1.15 1.17 1.19 1.21 1.20 1.16 1.13 1.10 1.10 1.07 1.04 1.02 1.00 1.00 1.00 1.00 1.00 1.00 1.00 1.00 1.00 1.00 1.00 1.00 1.00 1.00 1.00 1.00 1.00 1.00 1.00 1.00 1.01 1.03 1.04 1.05 1.05 1.05 1.06 1.08 1.08 1.08 1.06 1.04 1.04 1.04 1.03 1.02 1.00 1.00 1.01 1.03 1.03 1.02 1.00 1.00 1.02 1.05 1.05 1.04 1.02 1.03 1.05 1.07 1.09 1.10 1.10 1.09 1.09 1.10 1.11 1.12 1.13 1.15 1.16 1.15 1.11 1.07 1.05 1.02 1.01 1.00 1.00 1.00 1.00 1.00 1.00 1.00 1.00 1.00 1.00 1.00 1.00 1.01 1.01 1.01 1.01 1.02 1.03 1.04 1.05 1.05 1.04 1.05 1.06 1.10 1.10 1.08 1.04 1.03 1.05 1.07 1.07 1.07 1.08 1.08 1.08 1.09 1.10 1.12 1.12 1.11 1.09 1.07 1.05 1.03 1.02 1.02 1.03 1.03 1.03 1.02 1.01 1.00 1.03 1.05 1.06 1.05 1.04 1.05 1.06 1.08 1.10 1.11 1.13 1.14 1.14 1.14 1.11 1.09 1.05 1.03 1.01 1.02 1.02 1.01 1.01 1.00 1.00 1.00 1.00 1.00 1.00 1.00 1.00 1.00 1.00 1.00 1.00 1.00 1.00 1.00 1.00 1.00 1.00 1.00 1.00 1.00 1.00 1.00 1.00 1.00 1.00 1.00 1.00 1.00 1.00 1.00 1.00 1.00 1.00 1.00 1.00 1.00 1.00 1.00 1.00 1.00 1.00 1.00 1.00 1.00 1.00 1.00 1.00 1.00 1.00 1.00 1.00 1.00 1.00 1.00 1.00 1.00 1.00 1.00 1.00 1.00 1.00 1.00 1.00 1.00 1.00 1.00 1.00 1.00 1.00 1.00 1.00 1.00 1.00 1.00 1.00 1.00 1.00 1.00
1.03 1.10 1.14 1.14 1.12 1.12 1.13 1.13 1.15 1.17 1.19 1.22 1.23 1.19 1.15 1.10 1.08 1.05 1.02 1.00 1.00 1.00 1.00 1.00 1.00 1.00 1.00 1.00 1.00 1.00 1.00 1.00 1.00 1.00 1.00 1.00 1.00 1.00 1.00 1.00 1.01 1.02 1.04 1.04 1.05 1.05 1.06 1.07 1.06 1.05 1.03 1.03 1.04 1.05 1.03 1.02 1.00 1.01 1.02 1.03 1.03 1.02 1.00 1.01 1.04 1.05 1.04 1.02 1.02 1.04 1.06 1.08 1.09 1.09 1.09 1.09 1.09 1.10 1.10 1.11 1.13 1.14 1.16 1.14 1.10 1.07 1.05 1.03 1.01 1.00 1.00 1.00 1.00 1.00 1.00 1.00 1.00 1.00 1.00 1.00 1.00 1.00 1.00 1.00 1.01 1.01 1.02 1.03 1.03 1.03 1.03 1.04 1.07 1.10 1.11 1.09 1.06 1.05 1.05 1.05 1.05 1.06 1.06 1.07 1.07 1.08 1.10 1.12 1.13 1.11 1.09 1.07 1.05 1.03 1.02 1.01 1.01 1.02 1.03 1.02 1.00 1.00 1.02 1.04 1.04 1.03 1.03 1.04 1.06 1.07 1.08 1.10 1.11 1.13 1.14 1.13 1.14 1.11 1.08 1.03 1.03 1.03 1.02 1.01 1.00 1.00 1.00 1.00 1.00 1.00 1.00 1.00 1.00 1.00 1.00 1.00 1.00 1.00 1.00 1.00 1.00 1.00 1.00 1.00 1.00 1.00 1.00 1.00 1.00 1.00 1.00 1.00 1.00 1.00 1.00 1.00 1.00 1.00 1.00 1.00 1.00 1.00 1.00 1.00 1.00 1.00 1.00 1.00 1.00 1.00 1.00 1.00 1.00 1.00 1.00 1.00 1.00 1.00 1.00 1.00 1.00 1.00 1.00 1.00 1.00 1.00 1.00 1.00 1.00 1.00 1.00 1.00 1.00 1.00 1.00 1.00 1.00 1.00 1.00 1.00 1.00 1.00 1.00 1.00
1.01 1.07 1.12 1.14 1.13 1.14 1.14 1.14 1.15 1.17 1.19 1.20 1.22 1.20 1.17 1.11 1.07 1.03 1.01 1.00 1.00 1.00 1.00 1.00 1.00 1.00 1.00 1.00 1.00 1.00 1.00 1.00 1.00 1.00 1.00 1.00 1.00 1.00 1.00 1.00 1.01 1.02 1.02 1.03 1.03 1.04 1.05 1.05 1.04 1.03 1.03 1.04 1.05 1.05 1.04 1.02 1.01 1.01 1.02 1.02 1.02 1.01 1.01 1.03 1.04 1.04 1.02 1.01 1.03 1.05 1.08 1.09 1.09 1.08 1.08 1.08 1.08 1.09 1.10 1.10 1.12 1.13 1.13 1.10 1.08 1.06 1.05 1.03 1.01 1.00 1.00 1.00 1.00 1.00 1.00 1.00 1.00 1.00 1.00 1.00 1.00 1.00 1.00 1.00 1.00 1.01 1.01 1.02 1.02 1.03 1.04 1.05 1.07 1.12 1.15 1.14 1.11 1.08 1.07 1.05 1.05 1.05 1.05 1.06 1.06 1.07 1.10 1.12 1.13 1.11 1.09 1.07 1.05 1.04 1.03 1.02 1.02 1.03 1.03 1.02 1.01 1.01 1.01 1.02 1.02 1.02 1.03 1.04 1.05 1.06 1.07 1.09 1.10 1.11 1.12 1.13 1.14 1.12 1.08 1.05 1.05 1.04 1.02 1.01 1.00 1.00 1.00 1.00 1.00 1.00 1.00 1.00 1.00 1.00 1.00 1.00 1.00 1.00 1.00 1.00 1.00 1.00 1.00 1.00 1.00 1.00 1.00 1.00 1.00 1.00 1.00 1.00 1.00 1.00 1.00 1.00 1.00 1.00 1.00 1.00 1.00 1.00 1.00 1.00 1.00 1.00 1.00 1.00 1.00 1.00 1.00 1.00 1.00 1.00 1.00 1.00 1.00 1.00 1.00 1.00 1.00 1.00 1.00 1.00 1.00 1.00 1.00 1.00 1.00 1.00 1.00 1.00 1.00 1.00 1.00 1.00 1.00 1.00 1.00 1.00 1.00 1.00 1.00 1.00
1.02 1.05 1.10 1.12 1.14 1.15 1.17 1.20 1.19 1.19 1.16 1.17 1.20 1.21 1.18 1.11 1.06 1.02 1.00 1.00 1.00 1.00 1.00 1.00 1.00 1.00 1.00 1.00 1.00 1.00 1.00 1.00 1.00 1.00 1.00 1.00 1.00 1.00 1.00 1.01 1.01 1.02 1.03 1.03 1.03 1.03 1.04 1.03 1.02 1.02 1.03 1.05 1.07 1.08 1.08 1.05 1.02 1.01 1.01 1.01 1.01 1.00 1.02 1.04 1.04 1.03 1.03 1.04 1.05 1.07 1.09 1.10 1.10 1.08 1.07 1.07 1.07 1.08 1.08 1.09 1.10 1.11 1.10 1.08 1.06 1.06 1.05 1.03 1.00 1.00 1.00 1.00 1.00 1.00 1.00 1.00 1.00 1.00 1.00 1.00 1.00 1.00 1.00 1.00 1.00 1.00 1.01 1.01 1.02 1.03 1.04 1.05 1.08 1.13 1.18 1.19 1.17 1.15 1.11 1.09 1.05 1.04 1.05 1.05 1.06 1.07 1.09 1.11 1.11 1.10 1.09 1.09 1.08 1.06 1.05 1.03 1.02 1.03 1.02 1.01 1.00 1.01 1.01 1.01 1.02 1.03 1.04 1.03 1.04 1.05 1.06 1.08 1.09 1.10 1.11 1.12 1.14 1.12 1.09 1.06 1.06 1.04 1.02 1.00 1.00 1.01 1.01 1.00 1.00 1.00 1.00 1.00 1.00 1.00 1.00 1.00 1.00 1.00 1.00 1.00 1.00 1.00 1.00 1.00 1.00 1.00 1.00 1.00 1.00 1.00 1.00 1.00 1.00 1.00 1.00 1.00 1.00 1.00 1.00 1.00 1.00 1.00 1.00 1.00 1.00 1.00 1.00 1.00 1.00 1.00 1.00 1.00 1.00 1.00 1.00 1.00 1.00 1.00 1.00 1.00 1.00 1.00 1.00 1.00 1.00 1.00 1.00 1.00 1.00 1.00 1.00 1.00 1.00 1.00 1.00 1.00 1.00 1.00 1.00 1.00 1.00 1.00 1.00 1.00
1.02 1.06 1.11 1.12 1.13 1.16 1.21 1.24 1.22 1.18 1.13 1.13 1.16 1.16 1.14 1.08 1.03 1.01 1.00 1.00 1.00 1.00 1.00 1.00 1.00 1.00 1.00 1.00 1.00 1.00 1.00 1.00 1.00 1.00 1.00 1.01 1.02 1.03 1.04 1.04 1.05 1.06 1.06 1.05 1.03 1.03 1.02 1.02 1.02 1.02 1.04 1.06 1.09 1.12 1.11 1.07 1.02 1.02 1.02 1.02 1.01 1.02 1.03 1.03 1.03 1.03 1.05 1.06 1.07 1.08 1.10 1.11 1.10 1.07 1.06 1.06 1.06 1.06 1.06 1.07 1.08 1.09 1.08 1.07 1.06 1.05 1.04 1.01 1.00 1.00 1.00 1.00 1.00 1.00 1.00 1.00 1.00 1.00 1.00 1.00 1.00 1.00 1.00 1.00 1.00 1.00 1.00 1.01 1.03 1.04 1.03 1.04 1.08 1.14 1.19 1.21 1.20 1.18 1.15 1.11 1.06 1.04 1.04 1.05 1.05 1.07 1.08 1.10 1.10 1.11 1.12 1.12 1.11 1.08 1.05 1.03 1.02 1.02 1.02 1.01 1.01 1.00 1.00 1.01 1.03 1.05 1.06 1.05 1.05 1.05 1.05 1.06 1.08 1.08 1.10 1.12 1.12 1.10 1.08 1.07 1.06 1.03 1.01 1.01 1.03 1.03 1.02 1.00 1.00 1.00 1.00 1.00 1.00 1.00 1.00 1.00 1.00 1.00 1.00 1.00 1.00 1.00 1.00 1.00 1.00 1.00 1.00 1.00 1.00 1.00 1.00 1.00 1.00 1.00 1.00 1.00 1.00 1.00 1.00 1.00 1.00 1.00 1.00 1.00 1.00 1.00 1.00 1.00 1.00 1.00 1.00 1.00 1.00 1.00 1.00 1.00 1.00 1.00 1.00 1.00 1.00 1.00 1.00 1.00 1.00 1.00 1.00 1.00 1.00 1.00 1.00 1.00 1.00 1.00 1.00 1.00 1.00 1.00 1.00 1.00 1.00 1.00 1.00 1.00
1.06 1.09 1.12 1.10 1.12 1.16 1.21 1.24 1.20 1.16 1.11 1.14 1.13 1.14 1.11 1.07 1.03 1.00 1.00 1.00 1.00 1.00 1.00 1.00 1.00 1.00 1.00 1.00 1.00 1.00 1.00 1.00 1.00 1.00 1.01 1.04 1.07 1.09 1.11 1.11 1.11 1.10 1.09 1.07 1.04 1.03 1.01 1.01 1.01 1.03 1.04 1.06 1.09 1.13 1.11 1.07 1.03 1.03 1.03 1.03 1.03 1.04 1.03 1.03 1.03 1.04 1.07 1.08 1.08 1.08 1.09 1.10 1.09 1.07 1.05 1.04 1.04 1.04 1.04 1.06 1.07 1.08 1.07 1.08 1.08 1.06 1.03 1.01 1.00 1.00 1.00 1.00 1.00 1.00 1.00 1.00 1.00 1.00 1.00 1.00 1.00 1.00 1.00 1.00 1.00 1.00 1.01 1.02 1.02 1.02 1.02 1.04 1.08 1.13 1.16 1.17 1.18 1.17 1.14 1.09 1.04 1.03 1.03 1.04 1.05 1.07 1.08 1.10 1.11 1.12 1.14 1.13 1.11 1.08 1.04 1.02 1.02 1.03 1.03 1.03 1.02 1.01 1.00 1.01 1.04 1.06 1.07 1.06 1.05 1.04 1.04 1.05 1.06 1.07 1.09 1.11 1.11 1.09 1.08 1.07 1.05 1.02 1.01 1.03 1.04 1.04 1.02 1.00 1.00 1.00 1.00 1.00 1.00 1.00 1.00 1.00 1.00 1.00 1.00 1.00 1.00 1.00 1.00 1.00 1.00 1.00 1.00 1.00 1.00 1.00 1.00 1.00 1.00 1.00 1.00 1.00 1.00 1.00 1.00 1.00 1.00 1.00 1.00 1.00 1.00 1.00 1.00 1.00 1.00 1.00 1.00 1.00 1.00 1.00 1.00 1.00 1.00 1.00 1.00 1.00 1.00 1.00 1.00 1.00 1.00 1.00 1.00 1.00 1.00 1.00 1.00 1.00 1.00 1.00 1.00 1.00 1.00 1.00 1.00 1.00 1.00 1.00 1.00 1.00
1.07 1.10 1.13 1.10 1.11 1.14 1.17 1.16 1.14 1.12 1.12 1.12 1.15 1.18 1.18 1.13 1.06 1.03 1.01 1.00 1.00 1.00 1.00 1.00 1.00 1.00 1.00 1.00 1.00 1.00 1.00 1.00 1.00 1.00 1.03 1.08 1.12 1.15 1.16 1.16 1.14 1.11 1.09 1.06 1.03 1.02 1.00 1.00 1.01 1.02 1.03 1.05 1.08 1.09 1.08 1.06 1.04 1.04 1.03 1.04 1.03 1.04 1.02 1.02 1.03 1.05 1.07 1.07 1.07 1.08 1.08 1.09 1.08 1.07 1.04 1.03 1.02 1.02 1.04 1.05 1.06 1.06 1.07 1.10 1.10 1.08 1.04 1.02 1.01 1.00 1.00 1.00 1.00 1.00 1.00 1.00 1.00 1.00 1.00 1.00 1.00 1.00 1.00 1.00 1.00 1.00 1.01 1.02 1.01 1.01 1.01 1.04 1.07 1.10 1.11 1.11 1.10 1.10 1.08 1.05 1.03 1.02 1.03 1.04 1.06 1.08 1.09 1.10 1.12 1.13 1.14 1.13 1.10 1.06 1.03 1.03 1.04 1.06 1.07 1.06 1.03 1.01 1.00 1.01 1.03 1.05 1.06 1.05 1.04 1.03 1.03 1.04 1.05 1.06 1.09 1.10 1.13 1.12 1.10 1.06 1.03 1.01 1.01 1.03 1.04 1.03 1.01 1.00 1.00 1.00 1.00 1.00 1.00 1.00 1.00 1.00 1.00 1.00 1.00 1.00 1.00 1.00 1.00 1.00 1.00 1.00 1.00 1.00 1.00 1.00 1.00 1.00 1.00 1.00 1.00 1.00 1.00 1.00 1.00 1.00 1.00 1.00 1.00 1.00 1.00 1.00 1.00 1.00 1.00 1.00 1.00 1.00 1.00 1.00 1.00 1.00 1.00 1.00 1.00 1.00 1.00 1.00 1.00 1.00 1.00 1.00 1.00 1.00 1.00 1.00 1.00 1.00 1.00 1.00 1.00 1.00 1.00 1.00 1.00 1.00 1.00 1.00 1.00 1.00
1.07 1.11 1.13 1.09 1.09 1.12 1.12 1.11 1.10 1.11 1.11 1.13 1.18 1.25 1.28 1.22 1.13 1.04 1.01 1.00 1.00 1.01 1.01 1.00 1.00 1.00 1.00 1.00 1.00 1.00 1.00 1.00 1.00 1.01 1.04 1.10 1.13 1.16 1.16 1.15 1.12 1.07 1.05 1.03 1.02 1.01 1.00 1.00 1.01 1.01 1.02 1.04 1.05 1.06 1.05 1.04 1.03 1.02 1.02 1.03 1.04 1.03 1.01 1.02 1.03 1.05 1.05 1.06 1.06 1.07 1.08 1.09 1.09 1.07 1.03 1.02 1.01 1.03 1.04 1.05 1.04 1.04 1.06 1.11 1.12 1.10 1.05 1.02 1.01 1.00 1.00 1.00 1.00 1.00 1.00 1.00 1.00 1.00 1.00 1.00 1.00 1.00 1.00 1.00 1.00 1.01 1.01 1.01 1.01 1.00 1.01 1.02 1.04 1.06 1.06 1.06 1.05 1.04 1.03 1.02 1.02 1.02 1.03 1.05 1.07 1.08 1.09 1.10 1.12 1.12 1.12 1.10 1.08 1.05 1.04 1.05 1.07 1.09 1.09 1.06 1.02 1.01 1.00 1.01 1.02 1.02 1.02 1.02 1.02 1.02 1.02 1.04 1.05 1.07 1.09 1.10 1.13 1.13 1.11 1.05 1.02 1.00 1.01 1.02 1.01 1.00 1.00 1.00 1.00 1.00 1.00 1.00 1.00 1.00 1.00 1.00 1.00 1.00 1.00 1.00 1.00 1.00 1.00 1.00 1.00 1.00 1.00 1.00 1.00 1.00 1.00 1.00 1.00 1.00 1.00 1.00 1.00 1.00 1.00 1.00 1.00 1.00 1.00 1.00 1.00 1.00 1.00 1.00 1.00 1.00 1.00 1.00 1.00 1.00 1.00 1.00 1.00 1.00 1.00 1.00 1.00 1.00 1.00 1.00 1.00 1.00 1.00 1.00 1.00 1.00 1.00 1.00 1.00 1.00 1.00 1.00 1.00 1.00 1.00 1.00 1.00 1.00 1.00 1.00
1.06 1.09 1.11 1.07 1.08 1.10 1.10 1.10 1.10 1.10 1.10 1.12 1.20 1.29 1.32 1.25 1.14 1.05 1.02 1.01 1.02 1.02 1.01 1.00 1.00 1.00 1.00 1.00 1.00 1.00 1.00 1.00 1.00 1.01 1.04 1.07 1.10 1.11 1.11 1.09 1.06 1.04 1.03 1.01 1.01 1.00 1.00 1.00 1.00 1.00 1.01 1.02 1.04 1.04 1.04 1.03 1.02 1.01 1.01 1.02 1.02 1.01 1.01 1.02 1.04 1.04 1.05 1.05 1.06 1.06 1.07 1.08 1.08 1.06 1.02 1.01 1.01 1.03 1.03 1.03 1.02 1.03 1.07 1.11 1.12 1.10 1.06 1.03 1.01 1.00 1.00 1.00 1.00 1.00 1.00 1.00 1.00 1.00 1.00 1.00 1.00 1.00 1.00 1.00 1.01 1.01 1.01 1.00 1.01 1.02 1.03 1.02 1.02 1.02 1.02 1.02 1.01 1.01 1.01 1.02 1.03 1.04 1.04 1.06 1.07 1.08 1.09 1.10 1.11 1.10 1.10 1.09 1.07 1.06 1.06 1.07 1.09 1.09 1.07 1.04 1.01 1.00 1.00 1.00 1.01 1.01 1.00 1.00 1.01 1.02 1.03 1.04 1.06 1.08 1.08 1.09 1.14 1.15 1.12 1.05 1.01 1.00 1.00 1.00 1.00 1.00 1.00 1.00 1.00 1.00 1.00 1.00 1.00 1.00 1.00 1.00 1.00 1.00 1.00 1.00 1.00 1.00 1.00 1.00 1.00 1.00 1.00 1.00 1.00 1.00 1.00 1.00 1.00 1.00 1.00 1.00 1.00 1.00 1.00 1.00 1.00 1.00 1.00 1.00 1.00 1.00 1.00 1.00 1.00 1.00 1.00 1.00 1.00 1.00 1.00 1.00 1.00 1.00 1.00 1.00 1.00 1.00 1.00 1.00 1.00 1.00 1.00 1.00 1.00 1.00 1.00 1.00 1.00 1.00 1.00 1.00 1.00 1.00 1.00 1.00 1.00 1.00 1.00 1.00
1.06 1.08 1.08 1.06 1.09 1.13 1.12 1.11 1.09 1.08 1.07 1.12 1.18 1.24 1.25 1.20 1.11 1.04 1.03 1.03 1.04 1.04 1.03 1.02 1.01 1.00 1.00 1.00 1.00 1.00 1.00 1.00 1.00 1.01 1.02 1.04 1.05 1.06 1.05 1.05 1.05 1.04 1.02 1.00 1.00 1.00 1.00 1.00 1.00 1.00 1.01 1.02 1.02 1.02 1.02 1.01 1.01 1.01 1.01 1.01 1.01 1.01 1.02 1.03 1.04 1.04 1.05 1.05 1.05 1.05 1.06 1.07 1.06 1.03 1.01 1.01 1.02 1.02 1.02 1.01 1.01 1.03 1.07 1.10 1.12 1.11 1.08 1.04 1.01 1.00 1.00 1.00 1.00 1.00 1.00 1.00 1.00 1.00 1.00 1.00 1.00 1.00 1.00 1.00 1.01 1.01 1.00 1.00 1.03 1.05 1.05 1.03 1.01 1.00 1.01 1.00 1.00 1.01 1.04 1.06 1.05 1.05 1.05 1.06 1.07 1.07 1.08 1.09 1.09 1.09 1.09 1.09 1.08 1.07 1.06 1.07 1.07 1.05 1.03 1.01 1.00 1.00 1.00 1.00 1.00 1.00 1.00 1.01 1.01 1.02 1.03 1.05 1.07 1.07 1.07 1.10 1.13 1.14 1.11 1.06 1.02 1.00 1.00 1.00 1.00 1.00 1.00 1.00 1.00 1.00 1.00 1.00 1.00 1.00 1.00 1.00 1.00 1.00 1.00 1.00 1.00 1.00 1.00 1.00 1.00 1.00 1.00 1.00 1.00 1.00 1.00 1.00 1.00 1.00 1.00 1.00 1.00 1.00 1.00 1.00 1.00 1.00 1.00 1.00 1.00 1.00 1.00 1.00 1.00 1.00 1.00 1.00 1.00 1.00 1.00 1.00 1.00 1.00 1.00 1.00 1.00 1.00 1.00 1.00 1.00 1.00 1.00 1.00 1.00 1.00 1.00 1.00 1.00 1.00 1.00 1.00 1.00 1.00 1.00 1.00 1.00 1.00 1.00 1.00
1.04 1.06 1.08 1.09 1.14 1.16 1.13 1.09 1.06 1.05 1.06 1.09 1.14 1.17 1.17 1.13 1.08 1.05 1.05 1.07 1.07 1.07 1.06 1.03 1.02 1.00 1.00 1.00 1.00 1.00 1.00 1.00 1.00 1.01 1.01 1.02 1.02 1.02 1.03 1.05 1.06 1.05 1.02 1.00 1.00 1.00 1.00 1.00 1.00 1.01 1.01 1.02 1.02 1.01 1.01 1.00 1.01 1.01 1.01 1.01 1.02 1.02 1.03 1.03 1.04 1.04 1.05 1.05 1.05 1.04 1.04 1.04 1.03 1.02 1.01 1.01 1.01 1.01 1.01 1.00 1.01 1.04 1.07 1.10 1.12 1.11 1.09 1.04 1.01 1.00 1.00 1.00 1.00 1.00 1.00 1.00 1.00 1.00 1.00 1.00 1.00 1.00 1.00 1.00 1.00 1.00 1.00 1.00 1.05 1.07 1.08 1.04 1.02 1.01 1.00 1.00 1.01 1.03 1.07 1.08 1.07 1.05 1.05 1.05 1.06 1.07 1.07 1.08 1.08 1.08 1.09 1.09 1.08 1.06 1.05 1.05 1.04 1.02 1.01 1.00 1.00 1.00 1.00 1.00 1.01 1.02 1.02 1.01 1.01 1.02 1.04 1.06 1.06 1.06 1.07 1.10 1.14 1.17 1.15 1.10 1.05 1.02 1.00 1.00 1.00 1.00 1.00 1.00 1.00 1.00 1.00 1.00 1.00 1.00 1.00 1.00 1.00 1.00 1.00 1.00 1.00 1.00 1.00 1.00 1.00 1.00 1.00 1.00 1.00 1.00 1.00 1.00 1.00 1.00 1.00 1.00 1.00 1.00 1.00 1.00 1.00 1.00 1.00 1.00 1.00 1.00 1.00 1.00 1.00 1.00 1.00 1.00 1.00 1.00 1.00 1.00 1.00 1.00 1.00 1.00 1.00 1.00 1.00 1.00 1.00 1.00 1.00 1.00 1.00 1.00 1.00 1.00 1.00 1.00 1.00 1.00 1.00 1.00 1.00 1.00 1.00 1.00 1.00 1.00
1.05 1.08 1.12 1.14 1.17 1.16 1.12 1.08 1.05 1.03 1.05 1.08 1.11 1.14 1.13 1.12 1.09 1.09 1.09 1.10 1.10 1.10 1.08 1.06 1.03 1.02 1.01 1.00 1.00 1.00 1.00 1.00 1.00 1.00 1.00 1.01 1.01 1.01 1.02 1.06 1.08 1.06 1.02 1.00 1.00 1.00 1.00 1.00 1.00 1.01 1.01 1.01 1.01 1.00 1.00 1.00 1.01 1.01 1.02 1.03 1.04 1.05 1.05 1.05 1.05 1.05 1.06 1.07 1.07 1.05 1.04 1.03 1.04 1.03 1.02 1.01 1.01 1.00 1.00 1.01 1.02 1.05 1.07 1.10 1.12 1.11 1.07 1.03 1.01 1.00 1.00 1.00 1.00 1.00 1.00 1.00 1.00 1.00 1.00 1.00 1.00 1.00 1.00 1.00 1.00 1.00 1.00 1.01 1.05 1.08 1.10 1.07 1.04 1.02 1.01 1.01 1.02 1.05 1.07 1.08 1.07 1.05 1.04 1.04 1.05 1.06 1.06 1.07 1.08 1.09 1.09 1.08 1.07 1.05 1.03 1.02 1.01 1.01 1.00 1.00 1.00 1.00 1.00 1.01 1.02 1.04 1.04 1.03 1.02 1.03 1.04 1.05 1.06 1.06 1.08 1.11 1.15 1.19 1.21 1.19 1.13 1.06 1.03 1.01 1.00 1.00 1.00 1.00 1.00 1.00 1.00 1.00 1.00 1.00 1.00 1.00 1.00 1.00 1.00 1.00 1.00 1.00 1.00 1.00 1.00 1.00 1.00 1.00 1.00 1.00 1.00 1.00 1.00 1.00 1.00 1.00 1.00 1.00 1.00 1.00 1.00 1.00 1.00 1.00 1.00 1.00 1.00 1.00 1.00 1.00 1.00 1.00 1.00 1.00 1.00 1.00 1.00 1.00 1.00 1.00 1.01 1.01 1.01 1.00 1.00 1.00 1.00 1.00 1.00 1.00 1.00 1.00 1.00 1.00 1.00 1.00 1.00 1.00 1.00 1.00 1.00 1.00 1.00 1.00
1.05 1.09 1.15 1.15 1.15 1.12 1.09 1.06 1.04 1.03 1.06 1.08 1.11 1.13 1.14 1.12 1.11 1.11 1.11 1.11 1.11 1.11 1.09 1.09 1.07 1.06 1.03 1.02 1.02 1.01 1.00 1.00 1.00 1.00 1.00 1.00 1.00 1.00 1.03 1.07 1.08 1.06 1.02 1.01 1.00 1.00 1.00 1.00 1.00 1.00 1.01 1.00 1.00 1.00 1.00 1.00 1.01 1.03 1.05 1.07 1.08 1.07 1.07 1.05 1.05 1.06 1.07 1.07 1.07 1.05 1.03 1.04 1.05 1.05 1.03 1.01 1.01 1.00 1.00 1.02 1.03 1.05 1.07 1.09 1.10 1.08 1.05 1.03 1.01 1.00 1.00 1.00 1.00 1.00 1.00 1.00 1.00 1.00 1.00 1.00 1.00 1.00 1.00 1.00 1.00 1.00 1.00 1.01 1.06 1.10 1.13 1.10 1.06 1.04 1.02 1.02 1.02 1.04 1.05 1.06 1.05 1.04 1.03 1.03 1.04 1.05 1.06 1.07 1.08 1.08 1.08 1.07 1.06 1.03 1.02 1.00 1.00 1.00 1.01 1.02 1.02 1.00 1.00 1.01 1.03 1.05 1.06 1.04 1.02 1.03 1.05 1.05 1.04 1.05 1.07 1.11 1.15 1.21 1.26 1.26 1.20 1.13 1.07 1.04 1.01 1.01 1.00 1.00 1.00 1.00 1.00 1.00 1.00 1.00 1.00 1.00 1.00 1.00 1.00 1.00 1.00 1.00 1.00 1.00 1.00 1.00 1.00 1.00 1.00 1.00 1.00 1.00 1.00 1.00 1.00 1.00 1.00 1.00 1.00 1.00 1.00 1.00 1.00 1.00 1.00 1.00 1.00 1.00 1.00 1.00 1.00 1.00 1.00 1.00 1.00 1.00 1.00 1.00 1.00 1.02 1.03 1.03 1.01 1.00 1.00 1.00 1.00 1.00 1.00 1.00 1.00 1.00 1.00 1.00 1.00 1.00 1.00 1.00 1.00 1.00 1.00 1.00 1.00 1.00
1.06 1.13 1.17 1.14 1.10 1.07 1.05 1.04 1.05 1.05 1.07 1.10 1.12 1.14 1.13 1.12 1.12 1.12 1.11 1.10 1.10 1.10 1.10 1.11 1.11 1.10 1.08 1.06 1.04 1.01 1.00 1.00 1.00 1.00 1.00 1.00 1.00 1.01 1.03 1.06 1.09 1.08 1.04 1.01 1.00 1.00 1.00 1.00 1.00 1.00 1.00 1.00 1.00 1.00 1.00 1.01 1.03 1.06 1.08 1.10 1.09 1.07 1.06 1.05 1.05 1.06 1.06 1.06 1.05 1.04 1.03 1.06 1.08 1.07 1.04 1.01 1.00 1.00 1.01 1.02 1.03 1.05 1.07 1.09 1.08 1.07 1.05 1.04 1.02 1.00 1.00 1.00 1.00 1.00 1.00 1.00 1.00 1.00 1.00 1.00 1.00 1.00 1.00 1.00 1.00 1.00 1.00 1.01 1.05 1.11 1.13 1.12 1.08 1.05 1.03 1.02 1.01 1.02 1.03 1.04 1.04 1.03 1.02 1.02 1.04 1.05 1.06 1.07 1.07 1.07 1.07 1.06 1.04 1.02 1.01 1.00 1.00 1.01 1.02 1.03 1.02 1.00 1.00 1.01 1.03 1.05 1.05 1.04 1.03 1.04 1.04 1.03 1.04 1.05 1.07 1.09 1.13 1.20 1.26 1.28 1.26 1.18 1.12 1.07 1.04 1.02 1.00 1.00 1.00 1.00 1.00 1.00 1.00 1.00 1.00 1.00 1.00 1.00 1.00 1.00 1.00 1.00 1.00 1.00 1.00 1.00 1.00 1.00 1.00 1.00 1.00 1.00 1.00 1.00 1.00 1.00 1.00 1.00 1.00 1.00 1.00 1.00 1.00 1.00 1.00 1.00 1.00 1.00 1.00 1.00 1.00 1.00 1.00 1.00 1.00 1.00 1.00 1.01 1.03 1.06 1.06 1.04 1.01 1.00 1.00 1.00 1.00 1.00 1.00 1.00 1.00 1.00 1.00 1.00 1.00 1.00 1.00 1.00 1.00 1.00 1.00 1.00 1.00 1.00
1.04 1.10 1.13 1.10 1.05 1.04 1.03 1.03 1.04 1.06 1.08 1.09 1.12 1.12 1.12 1.10 1.11 1.10 1.09 1.08 1.08 1.08 1.09 1.13 1.14 1.14 1.10 1.07 1.04 1.01 1.00 1.00 1.00 1.00 1.00 1.00 1.00 1.00 1.02 1.06 1.09 1.08 1.05 1.01 1.00 1.00 1.00 1.00 1.00 1.00 1.00 1.00 1.00 1.00 1.01 1.02 1.05 1.08 1.09 1.09 1.07 1.06 1.04 1.03 1.04 1.03 1.03 1.03 1.02 1.02 1.04 1.08 1.09 1.07 1.04 1.01 1.01 1.01 1.01 1.02 1.03 1.04 1.07 1.08 1.08 1.07 1.06 1.05 1.03 1.01 1.00 1.00 1.00 1.00 1.00 1.00 1.00 1.00 1.00 1.00 1.00 1.00 1.00 1.00 1.00 1.00 1.00 1.01 1.05 1.11 1.14 1.13 1.10 1.06 1.04 1.01 1.01 1.01 1.02 1.03 1.02 1.01 1.01 1.02 1.03 1.05 1.06 1.06 1.06 1.05 1.05 1.04 1.03 1.01 1.00 1.00 1.00 1.01 1.03 1.02 1.01 1.00 1.00 1.01 1.03 1.04 1.04 1.03 1.03 1.03 1.03 1.03 1.03 1.04 1.05 1.07 1.11 1.16 1.22 1.25 1.24 1.21 1.15 1.11 1.07 1.03 1.00 1.00 1.00 1.00 1.00 1.00 1.00 1.00 1.01 1.02 1.02 1.00 1.00 1.00 1.00 1.00 1.00 1.00 1.00 1.00 1.00 1.00 1.00 1.00 1.00 1.00 1.00 1.00 1.00 1.00 1.00 1.00 1.00 1.00 1.00 1.00 1.00 1.00 1.00 1.00 1.00 1.00 1.00 1.00 1.00 1.00 1.00 1.00 1.00 1.00 1.01 1.02 1.05 1.07 1.06 1.04 1.01 1.00 1.00 1.00 1.00 1.00 1.00 1.00 1.00 1.00 1.00 1.00 1.00 1.00 1.00 1.00 1.00 1.00 1.00 1.00 1.00 1.00
1.04 1.08 1.10 1.06 1.03 1.02 1.02 1.03 1.04 1.06 1.07 1.09 1.10 1.10 1.09 1.08 1.09 1.08 1.08 1.07 1.06 1.06 1.08 1.12 1.14 1.12 1.09 1.05 1.02 1.00 1.00 1.00 1.00 1.00 1.00 1.00 1.00 1.01 1.02 1.04 1.07 1.06 1.04 1.00 1.00 1.00 1.00 1.00 1.00 1.00 1.00 1.00 1.00 1.01 1.02 1.04 1.07 1.08 1.07 1.06 1.04 1.03 1.02 1.02 1.02 1.02 1.01 1.01 1.00 1.03 1.07 1.10 1.10 1.08 1.04 1.02 1.00 1.01 1.01 1.02 1.03 1.05 1.08 1.09 1.09 1.08 1.07 1.05 1.03 1.00 1.00 1.00 1.00 1.00 1.00 1.00 1.00 1.00 1.00 1.00 1.00 1.00 1.00 1.00 1.00 1.00 1.00 1.01 1.04 1.09 1.13 1.13 1.10 1.07 1.03 1.02 1.01 1.02 1.02 1.01 1.01 1.00 1.01 1.02 1.04 1.05 1.05 1.05 1.04 1.05 1.05 1.03 1.01 1.00 1.00 1.00 1.00 1.01 1.01 1.01 1.00 1.00 1.00 1.01 1.02 1.03 1.03 1.03 1.03 1.02 1.02 1.02 1.02 1.03 1.03 1.05 1.08 1.13 1.17 1.21 1.21 1.21 1.18 1.15 1.10 1.05 1.01 1.00 1.01 1.01 1.01 1.01 1.01 1.01 1.03 1.03 1.03 1.02 1.01 1.01 1.00 1.00 1.00 1.00 1.00 1.00 1.00 1.00 1.00 1.00 1.00 1.00 1.00 1.00 1.00 1.00 1.00 1.00 1.00 1.00 1.00 1.00 1.00 1.00 1.00 1.00 1.00 1.00 1.00 1.00 1.00 1.00 1.00 1.00 1.00 1.00 1.01 1.03 1.05 1.05 1.03 1.01 1.00 1.00 1.00 1.00 1.00 1.00 1.00 1.00 1.00 1.00 1.00 1.00 1.00 1.00 1.00 1.00 1.00 1.00 1.00 1.00 1.00 1.00
1.04 1.07 1.08 1.04 1.01 1.01 1.02 1.04 1.05 1.07 1.07 1.08 1.09 1.08 1.07 1.06 1.07 1.08 1.08 1.07 1.04 1.05 1.07 1.09 1.10 1.08 1.04 1.01 1.00 1.00 1.00 1.00 1.00 1.00 1.00 1.00 1.00 1.00 1.01 1.02 1.03 1.02 1.01 1.00 1.00 1.00 1.00 1.00 1.00 1.00 1.00 1.00 1.01 1.02 1.03 1.05 1.06 1.05 1.05 1.03 1.02 1.01 1.01 1.01 1.01 1.00 1.00 1.00 1.01 1.05 1.10 1.12 1.14 1.11 1.07 1.02 1.00 1.00 1.01 1.02 1.04 1.07 1.09 1.10 1.10 1.10 1.08 1.05 1.02 1.00 1.00 1.00 1.00 1.00 1.00 1.00 1.00 1.00 1.00 1.00 1.00 1.00 1.00 1.00 1.00 1.00 1.00 1.01 1.04 1.08 1.12 1.13 1.10 1.06 1.04 1.04 1.03 1.03 1.01 1.00 1.00 1.01 1.02 1.03 1.04 1.04 1.04 1.03 1.03 1.04 1.04 1.02 1.01 1.00 1.00 1.00 1.00 1.00 1.01 1.00 1.01 1.00 1.00 1.01 1.01 1.02 1.03 1.03 1.02 1.01 1.01 1.01 1.01 1.02 1.02 1.03 1.06 1.10 1.14 1.17 1.18 1.20 1.21 1.20 1.14 1.08 1.03 1.04 1.03 1.06 1.05 1.06 1.04 1.04 1.05 1.05 1.05 1.04 1.04 1.03 1.01 1.01 1.01 1.01 1.00 1.00 1.00 1.00 1.00 1.00 1.00 1.00 1.00 1.00 1.00 1.00 1.00 1.00 1.00 1.00 1.00 1.00 1.00 1.00 1.00 1.00 1.00 1.00 1.00 1.00 1.00 1.00 1.00 1.00 1.00 1.00 1.01 1.02 1.03 1.02 1.01 1.00 1.00 1.00 1.00 1.00 1.00 1.00 1.00 1.00 1.00 1.00 1.00 1.00 1.00 1.00 1.00 1.00 1.00 1.00 1.00 1.00 1.00 1.00
1.02 1.05 1.06 1.03 1.01 1.01 1.03 1.07 1.09 1.09 1.07 1.07 1.07 1.06 1.05 1.05 1.07 1.10 1.10 1.08 1.04 1.04 1.05 1.06 1.05 1.03 1.01 1.00 1.00 1.00 1.00 1.00 1.00 1.00 1.00 1.00 1.00 1.00 1.00 1.01 1.00 1.00 1.00 1.00 1.00 1.00 1.01 1.01 1.01 1.00 1.01 1.01 1.02 1.03 1.04 1.04 1.04 1.03 1.02 1.01 1.01 1.01 1.01 1.00 1.01 1.01 1.01 1.01 1.04 1.08 1.12 1.14 1.15 1.12 1.08 1.02 1.00 1.00 1.01 1.03 1.06 1.08 1.09 1.11 1.11 1.10 1.07 1.04 1.02 1.01 1.00 1.00 1.00 1.00 1.00 1.00 1.00 1.00 1.00 1.00 1.00 1.00 1.00 1.00 1.00 1.00 1.00 1.01 1.04 1.08 1.11 1.12 1.10 1.07 1.05 1.05 1.04 1.02 1.00 1.00 1.01 1.01 1.02 1.03 1.03 1.03 1.02 1.02 1.03 1.04 1.03 1.02 1.02 1.01 1.00 1.00 1.00 1.01 1.02 1.03 1.02 1.01 1.00 1.01 1.02 1.03 1.03 1.02 1.01 1.01 1.00 1.01 1.02 1.02 1.01 1.02 1.04 1.08 1.12 1.15 1.18 1.21 1.23 1.21 1.16 1.10 1.07 1.06 1.07 1.09 1.12 1.12 1.10 1.07 1.07 1.08 1.09 1.09 1.08 1.06 1.04 1.04 1.02 1.01 1.00 1.00 1.00 1.00 1.00 1.00 1.00 1.00 1.00 1.00 1.00 1.00 1.00 1.00 1.00 1.00 1.00 1.00 1.00 1.00 1.00 1.00 1.00 1.00 1.00 1.00 1.00 1.00 1.00 1.00 1.00 1.00 1.01 1.02 1.02 1.02 1.01 1.00 1.00 1.00 1.00 1.00 1.00 1.00 1.00 1.00 1.00 1.00 1.00 1.00 1.00 1.00 1.00 1.00 1.00 1.00 1.00 1.00 1.00 1.00
1.02 1.04 1.04 1.03 1.01 1.02 1.04 1.10 1.11 1.10 1.06 1.06 1.06 1.05 1.04 1.05 1.07 1.11 1.12 1.10 1.05 1.04 1.04 1.04 1.03 1.01 1.00 1.00 1.00 1.00 1.00 1.00 1.00 1.00 1.00 1.00 1.00 1.00 1.00 1.00 1.00 1.00 1.00 1.00 1.00 1.00 1.01 1.01 1.01 1.01 1.01 1.02 1.03 1.03 1.03 1.02 1.02 1.02 1.02 1.02 1.01 1.00 1.01 1.03 1.04 1.03 1.01 1.03 1.06 1.10 1.12 1.14 1.15 1.13 1.08 1.03 1.01 1.01 1.02 1.05 1.07 1.07 1.08 1.10 1.11 1.10 1.06 1.03 1.02 1.01 1.01 1.00 1.00 1.00 1.00 1.00 1.00 1.00 1.00 1.00 1.00 1.00 1.00 1.00 1.00 1.00 1.00 1.01 1.04 1.08 1.11 1.11 1.09 1.07 1.06 1.05 1.03 1.01 1.00 1.00 1.01 1.01 1.02 1.02 1.02 1.01 1.01 1.01 1.02 1.03 1.04 1.04 1.03 1.01 1.00 1.00 1.01 1.03 1.05 1.06 1.04 1.03 1.01 1.01 1.02 1.02 1.01 1.01 1.00 1.00 1.01 1.02 1.02 1.02 1.01 1.01 1.03 1.07 1.11 1.14 1.17 1.20 1.23 1.22 1.17 1.11 1.08 1.08 1.09 1.13 1.16 1.17 1.14 1.10 1.10 1.12 1.14 1.14 1.12 1.10 1.09 1.06 1.04 1.02 1.00 1.00 1.00 1.00 1.00 1.00 1.00 1.00 1.00 1.00 1.00 1.00 1.00 1.00 1.00 1.00 1.00 1.00 1.00 1.00 1.00 1.00 1.00 1.00 1.00 1.00 1.00 1.00 1.00 1.00 1.01 1.02 1.03 1.04 1.04 1.03 1.02 1.01 1.01 1.00 1.00 1.00 1.00 1.00 1.00 1.00 1.00 1.00 1.00 1.00 1.00 1.00 1.00 1.00 1.00 1.00 1.00 1.00 1.00 1.00
1.02 1.02 1.02 1.01 1.01 1.02 1.05 1.10 1.11 1.10 1.07 1.06 1.05 1.04 1.04 1.04 1.07 1.10 1.13 1.12 1.09 1.06 1.05 1.03 1.02 1.01 1.00 1.00 1.00 1.00 1.00 1.00 1.00 1.00 1.00 1.00 1.00 1.00 1.00 1.00 1.00 1.00 1.00 1.00 1.00 1.00 1.01 1.01 1.01 1.00 1.01 1.02 1.02 1.02 1.02 1.01 1.04 1.05 1.04 1.01 1.01 1.02 1.04 1.06 1.06 1.04 1.03 1.05 1.08 1.09 1.11 1.13 1.14 1.12 1.08 1.04 1.03 1.02 1.04 1.05 1.06 1.06 1.07 1.09 1.09 1.08 1.06 1.04 1.03 1.02 1.01 1.00 1.00 1.00 1.00 1.00 1.00 1.00 1.00 1.00 1.00 1.00 1.00 1.00 1.00 1.00 1.00 1.01 1.04 1.08 1.10 1.10 1.08 1.06 1.04 1.02 1.01 1.00 1.00 1.01 1.01 1.01 1.02 1.02 1.01 1.00 1.00 1.01 1.02 1.04 1.05 1.05 1.03 1.01 1.00 1.00 1.02 1.05 1.08 1.09 1.08 1.06 1.03 1.03 1.02 1.02 1.01 1.00 1.00 1.01 1.01 1.03 1.02 1.01 1.00 1.01 1.04 1.08 1.11 1.14 1.16 1.18 1.20 1.19 1.15 1.11 1.08 1.08 1.09 1.12 1.17 1.18 1.16 1.12 1.12 1.15 1.17 1.18 1.17 1.15 1.11 1.07 1.04 1.01 1.00 1.00 1.00 1.00 1.00 1.00 1.00 1.00 1.00 1.00 1.00 1.00 1.00 1.00 1.00 1.00 1.00 1.00 1.00 1.00 1.00 1.00 1.00 1.00 1.00 1.00 1.00 1.00 1.00 1.01 1.03 1.05 1.07 1.07 1.08 1.08 1.07 1.03 1.01 1.00 1.00 1.00 1.00 1.00 1.00 1.00 1.00 1.00 1.00 1.00 1.00 1.00 1.00 1.00 1.00 1.00 1.00 1.00 1.00 1.00
1.02 1.02 1.02 1.01 1.01 1.03 1.05 1.09 1.10 1.09 1.07 1.06 1.04 1.03 1.02 1.03 1.05 1.09 1.12 1.12 1.11 1.08 1.05 1.03 1.02 1.01 1.00 1.00 1.00 1.00 1.00 1.00 1.00 1.00 1.00 1.00 1.00 1.00 1.00 1.00 1.00 1.00 1.00 1.00 1.00 1.00 1.00 1.00 1.00 1.01 1.01 1.01 1.01 1.01 1.01 1.03 1.07 1.08 1.06 1.03 1.04 1.06 1.08 1.08 1.05 1.05 1.05 1.08 1.08 1.08 1.09 1.11 1.11 1.10 1.07 1.04 1.03 1.03 1.04 1.05 1.04 1.05 1.06 1.09 1.09 1.08 1.07 1.06 1.04 1.02 1.00 1.00 1.00 1.00 1.00 1.00 1.00 1.00 1.00 1.00 1.00 1.00 1.00 1.00 1.00 1.00 1.00 1.02 1.05 1.08 1.10 1.10 1.08 1.04 1.02 1.01 1.00 1.00 1.00 1.01 1.01 1.01 1.01 1.01 1.00 1.00 1.00 1.01 1.03 1.06 1.07 1.06 1.04 1.02 1.01 1.01 1.03 1.06 1.08 1.10 1.11 1.08 1.06 1.04 1.04 1.03 1.02 1.02 1.01 1.01 1.02 1.01 1.01 1.00 1.01 1.02 1.05 1.08 1.10 1.12 1.14 1.16 1.17 1.15 1.11 1.10 1.08 1.09 1.09 1.12 1.14 1.15 1.13 1.12 1.13 1.16 1.18 1.19 1.18 1.15 1.11 1.06 1.03 1.01 1.01 1.00 1.00 1.00 1.00 1.00 1.00 1.00 1.01 1.02 1.02 1.01 1.00 1.00 1.00 1.00 1.00 1.00 1.00 1.00 1.00 1.00 1.01 1.01 1.01 1.00 1.00 1.00 1.00 1.02 1.05 1.08 1.10 1.11 1.12 1.12 1.09 1.05 1.01 1.00 1.00 1.00 1.00 1.00 1.00 1.00 1.00 1.00 1.00 1.00 1.00 1.00 1.00 1.00 1.00 1.00 1.00 1.00 1.00 1.00
1.02 1.02 1.02 1.01 1.02 1.02 1.04 1.07 1.08 1.08 1.07 1.06 1.03 1.02 1.02 1.02 1.04 1.06 1.09 1.10 1.10 1.08 1.06 1.03 1.02 1.01 1.00 1.00 1.00 1.00 1.00 1.00 1.00 1.00 1.00 1.00 1.00 1.00 1.00 1.00 1.00 1.00 1.00 1.00 1.00 1.00 1.00 1.01 1.03 1.04 1.04 1.03 1.02 1.02 1.02 1.06 1.11 1.10 1.07 1.04 1.08 1.10 1.10 1.07 1.04 1.04 1.06 1.08 1.07 1.06 1.07 1.08 1.08 1.06 1.04 1.03 1.03 1.03 1.04 1.03 1.03 1.05 1.08 1.10 1.10 1.09 1.07 1.05 1.03 1.01 1.00 1.00 1.00 1.00 1.00 1.00 1.00 1.00 1.00 1.00 1.00 1.00 1.00 1.00 1.00 1.00 1.01 1.02 1.05 1.08 1.10 1.09 1.07 1.03 1.01 1.00 1.00 1.00 1.01 1.01 1.01 1.01 1.01 1.00 1.00 1.00 1.01 1.02 1.04 1.07 1.08 1.07 1.05 1.03 1.01 1.01 1.03 1.05 1.07 1.09 1.10 1.08 1.07 1.07 1.08 1.09 1.08 1.06 1.03 1.02 1.01 1.01 1.00 1.01 1.02 1.03 1.05 1.07 1.08 1.10 1.12 1.14 1.13 1.10 1.08 1.10 1.13 1.13 1.12 1.11 1.12 1.12 1.11 1.12 1.14 1.15 1.17 1.18 1.16 1.13 1.08 1.05 1.03 1.02 1.01 1.00 1.00 1.00 1.00 1.00 1.02 1.03 1.05 1.05 1.05 1.03 1.01 1.00 1.00 1.00 1.00 1.00 1.00 1.00 1.01 1.03 1.04 1.04 1.02 1.01 1.00 1.00 1.00 1.03 1.05 1.08 1.10 1.11 1.12 1.11 1.08 1.03 1.00 1.00 1.00 1.00 1.00 1.00 1.00 1.00 1.00 1.00 1.00 1.00 1.00 1.00 1.00 1.00 1.00 1.00 1.00 1.00 1.00 1.00
1.01 1.02 1.02 1.02 1.01 1.02 1.03 1.05 1.06 1.06 1.06 1.06 1.05 1.03 1.01 1.01 1.02 1.04 1.06 1.07 1.07 1.06 1.05 1.04 1.03 1.02 1.01 1.00 1.00 1.00 1.00 1.00 1.00 1.00 1.00 1.00 1.00 1.00 1.00 1.00 1.00 1.00 1.00 1.00 1.00 1.00 1.01 1.03 1.06 1.09 1.08 1.06 1.03 1.02 1.04 1.10 1.12 1.10 1.05 1.07 1.11 1.13 1.11 1.06 1.03 1.05 1.06 1.07 1.04 1.04 1.04 1.05 1.03 1.02 1.01 1.02 1.02 1.03 1.02 1.02 1.04 1.07 1.10 1.11 1.10 1.08 1.06 1.04 1.01 1.00 1.00 1.00 1.00 1.00 1.00 1.00 1.00 1.00 1.00 1.00 1.00 1.00 1.00 1.00 1.00 1.00 1.01 1.03 1.05 1.08 1.09 1.09 1.05 1.03 1.01 1.00 1.00 1.00 1.00 1.00 1.00 1.00 1.00 1.00 1.00 1.00 1.01 1.03 1.05 1.07 1.09 1.09 1.06 1.03 1.01 1.01 1.02 1.04 1.05 1.06 1.07 1.07 1.08 1.09 1.11 1.13 1.15 1.12 1.07 1.02 1.01 1.00 1.00 1.01 1.03 1.04 1.06 1.05 1.07 1.08 1.11 1.11 1.09 1.07 1.09 1.13 1.17 1.18 1.16 1.13 1.10 1.09 1.10 1.11 1.13 1.14 1.15 1.14 1.12 1.08 1.06 1.04 1.03 1.02 1.01 1.00 1.00 1.00 1.00 1.01 1.03 1.07 1.09 1.09 1.08 1.06 1.04 1.02 1.00 1.00 1.00 1.00 1.00 1.01 1.02 1.06 1.09 1.10 1.08 1.03 1.01 1.00 1.01 1.03 1.05 1.07 1.08 1.09 1.09 1.07 1.04 1.02 1.01 1.00 1.00 1.00 1.00 1.00 1.00 1.00 1.00 1.00 1.00 1.00 1.00 1.00 1.00 1.00 1.00 1.00 1.00 1.00 1.00 1.00
1.01 1.02 1.02 1.02 1.01 1.02 1.02 1.03 1.04 1.05 1.06 1.07 1.06 1.04 1.01 1.00 1.01 1.02 1.04 1.04 1.05 1.05 1.06 1.07 1.07 1.05 1.02 1.01 1.00 1.00 1.00 1.00 1.00 1.00 1.00 1.00 1.00 1.00 1.00 1.00 1.00 1.00 1.00 1.00 1.00 1.00 1.01 1.04 1.08 1.10 1.09 1.05 1.02 1.02 1.06 1.11 1.12 1.09 1.07 1.08 1.11 1.12 1.09 1.06 1.04 1.04 1.04 1.03 1.02 1.02 1.02 1.01 1.01 1.00 1.01 1.02 1.03 1.03 1.02 1.03 1.05 1.08 1.11 1.11 1.09 1.06 1.04 1.02 1.01 1.01 1.01 1.00 1.00 1.00 1.00 1.00 1.00 1.00 1.00 1.00 1.00 1.00 1.00 1.00 1.00 1.00 1.01 1.03 1.05 1.06 1.07 1.05 1.05 1.03 1.02 1.00 1.00 1.00 1.00 1.00 1.00 1.00 1.00 1.00 1.00 1.01 1.02 1.03 1.05 1.07 1.09 1.09 1.07 1.04 1.02 1.01 1.02 1.02 1.03 1.03 1.04 1.06 1.07 1.08 1.11 1.15 1.19 1.17 1.11 1.05 1.01 1.00 1.01 1.02 1.03 1.06 1.07 1.07 1.06 1.08 1.08 1.08 1.07 1.08 1.10 1.14 1.19 1.20 1.18 1.15 1.11 1.09 1.09 1.10 1.12 1.13 1.12 1.11 1.09 1.07 1.06 1.05 1.03 1.02 1.01 1.00 1.00 1.00 1.00 1.02 1.06 1.09 1.12 1.13 1.13 1.10 1.06 1.02 1.01 1.00 1.00 1.00 1.00 1.01 1.04 1.09 1.14 1.16 1.13 1.06 1.01 1.00 1.01 1.02 1.04 1.05 1.05 1.05 1.05 1.04 1.02 1.02 1.01 1.01 1.00 1.00 1.00 1.00 1.00 1.00 1.00 1.00 1.00 1.00 1.00 1.00 1.00 1.00 1.00 1.00 1.00 1.00 1.00 1.00
1.01 1.02 1.03 1.03 1.03 1.02 1.01 1.02 1.03 1.05 1.07 1.07 1.05 1.03 1.00 1.00 1.00 1.01 1.02 1.03 1.03 1.05 1.07 1.09 1.08 1.06 1.03 1.01 1.00 1.00 1.00 1.00 1.00 1.00 1.00 1.00 1.00 1.00 1.00 1.00 1.00 1.00 1.00 1.00 1.00 1.00 1.02 1.04 1.06 1.07 1.06 1.03 1.01 1.03 1.06 1.11 1.11 1.09 1.06 1.07 1.09 1.09 1.07 1.05 1.03 1.03 1.02 1.01 1.01 1.01 1.00 1.00 1.00 1.00 1.02 1.04 1.05 1.04 1.03 1.04 1.07 1.10 1.11 1.11 1.09 1.06 1.05 1.04 1.03 1.02 1.01 1.00 1.00 1.00 1.00 1.00 1.00 1.00 1.00 1.00 1.00 1.00 1.00 1.00 1.00 1.00 1.01 1.02 1.03 1.04 1.03 1.04 1.04 1.03 1.02 1.00 1.00 1.00 1.00 1.00 1.00 1.00 1.00 1.00 1.00 1.01 1.01 1.02 1.04 1.06 1.08 1.09 1.07 1.05 1.03 1.02 1.01 1.01 1.01 1.02 1.04 1.05 1.05 1.05 1.07 1.12 1.16 1.17 1.13 1.08 1.02 1.01 1.01 1.02 1.05 1.08 1.09 1.07 1.06 1.06 1.07 1.06 1.07 1.07 1.09 1.11 1.15 1.17 1.17 1.16 1.12 1.09 1.08 1.09 1.10 1.11 1.10 1.09 1.08 1.08 1.07 1.05 1.03 1.02 1.01 1.00 1.00 1.01 1.02 1.04 1.06 1.10 1.12 1.14 1.15 1.12 1.08 1.04 1.02 1.00 1.00 1.00 1.00 1.02 1.05 1.09 1.15 1.16 1.13 1.06 1.01 1.00 1.01 1.02 1.02 1.02 1.02 1.02 1.02 1.02 1.04 1.04 1.03 1.02 1.02 1.02 1.02 1.01 1.00 1.00 1.00 1.00 1.00 1.00 1.00 1.00 1.00 1.00 1.00 1.00 1.00 1.00 1.00 1.00
1.00 1.00 1.03 1.04 1.04 1.01 1.00 1.01 1.03 1.04 1.05 1.04 1.03 1.01 1.00 1.00 1.00 1.01 1.01 1.02 1.03 1.04 1.06 1.08 1.08 1.06 1.02 1.00 1.00 1.00 1.00 1.00 1.00 1.00 1.00 1.00 1.00 1.00 1.00 1.00 1.00 1.00 1.00 1.00 1.00 1.00 1.01 1.02 1.03 1.03 1.01 1.00 1.01 1.03 1.07 1.09 1.09 1.06 1.05 1.06 1.07 1.06 1.04 1.02 1.02 1.01 1.01 1.00 1.01 1.01 1.01 1.01 1.01 1.01 1.03 1.06 1.06 1.06 1.06 1.07 1.09 1.10 1.12 1.12 1.11 1.08 1.07 1.06 1.05 1.03 1.02 1.00 1.00 1.00 1.00 1.00 1.00 1.00 1.00 1.00 1.00 1.00 1.00 1.00 1.00 1.00 1.00 1.01 1.02 1.02 1.02 1.01 1.02 1.02 1.01 1.00 1.00 1.00 1.00 1.00 1.00 1.00 1.00 1.00 1.00 1.00 1.01 1.02 1.03 1.06 1.08 1.09 1.08 1.07 1.04 1.02 1.01 1.00 1.01 1.02 1.03 1.03 1.02 1.02 1.03 1.06 1.10 1.13 1.13 1.09 1.03 1.02 1.02 1.03 1.06 1.09 1.09 1.07 1.05 1.05 1.05 1.06 1.06 1.06 1.05 1.08 1.11 1.12 1.14 1.14 1.13 1.11 1.08 1.10 1.10 1.11 1.09 1.09 1.09 1.08 1.07 1.06 1.04 1.03 1.01 1.00 1.01 1.02 1.03 1.05 1.07 1.09 1.12 1.14 1.15 1.12 1.08 1.04 1.02 1.00 1.00 1.00 1.01 1.02 1.04 1.08 1.11 1.12 1.09 1.05 1.01 1.00 1.01 1.01 1.02 1.02 1.01 1.01 1.02 1.03 1.04 1.05 1.05 1.06 1.05 1.05 1.03 1.02 1.01 1.00 1.00 1.00 1.00 1.00 1.00 1.00 1.00 1.00 1.00 1.00 1.00 1.00 1.00 1.00
1.00 1.00 1.03 1.03 1.03 1.00 1.00 1.01 1.02 1.03 1.03 1.02 1.01 1.00 1.00 1.00 1.00 1.00 1.00 1.01 1.02 1.03 1.04 1.05 1.05 1.03 1.01 1.00 1.00 1.00 1.00 1.00 1.00 1.00 1.00 1.00 1.00 1.00 1.00 1.00 1.00 1.00 1.00 1.00 1.00 1.00 1.00 1.01 1.01 1.00 1.00 1.00 1.01 1.04 1.06 1.08 1.06 1.04 1.03 1.05 1.06 1.05 1.03 1.03 1.02 1.02 1.01 1.02 1.04 1.05 1.04 1.02 1.01 1.02 1.05 1.07 1.08 1.08 1.09 1.09 1.09 1.10 1.13 1.14 1.13 1.11 1.10 1.08 1.06 1.03 1.01 1.01 1.01 1.00 1.00 1.00 1.00 1.00 1.00 1.00 1.00 1.00 1.00 1.00 1.00 1.00 1.00 1.00 1.00 1.01 1.00 1.01 1.00 1.00 1.00 1.00 1.00 1.00 1.00 1.00 1.00 1.00 1.00 1.00 1.00 1.00 1.00 1.01 1.03 1.05 1.08 1.09 1.09 1.08 1.05 1.02 1.00 1.00 1.01 1.01 1.02 1.01 1.01 1.01 1.01 1.02 1.05 1.08 1.10 1.08 1.06 1.05 1.04 1.06 1.08 1.10 1.08 1.05 1.05 1.04 1.06 1.05 1.05 1.03 1.03 1.05 1.07 1.08 1.09 1.11 1.10 1.10 1.09 1.10 1.10 1.11 1.11 1.11 1.10 1.09 1.08 1.07 1.06 1.04 1.02 1.01 1.01 1.02 1.03 1.05 1.06 1.08 1.11 1.13 1.14 1.11 1.08 1.04 1.01 1.01 1.01 1.01 1.01 1.01 1.02 1.04 1.07 1.08 1.07 1.04 1.02 1.00 1.02 1.05 1.07 1.05 1.02 1.01 1.02 1.03 1.05 1.05 1.07 1.08 1.08 1.07 1.05 1.03 1.01 1.00 1.00 1.00 1.00 1.00 1.00 1.00 1.00 1.00 1.00 1.00 1.00 1.00 1.00 1.00
1.00 1.00 1.01 1.01 1.01 1.00 1.00 1.00 1.01 1.01 1.01 1.00 1.00 1.00 1.00 1.00 1.00 1.00 1.00 1.00 1.01 1.01 1.02 1.03 1.02 1.01 1.00 1.00 1.00 1.00 1.00 1.00 1.00 1.00 1.00 1.00 1.00 1.00 1.00 1.00 1.00 1.00 1.00 1.00 1.00 1.00 1.00 1.00 1.00 1.00 1.00 1.00 1.02 1.05 1.07 1.05 1.03 1.01 1.02 1.06 1.08 1.08 1.05 1.03 1.03 1.02 1.02 1.04 1.07 1.07 1.05 1.04 1.05 1.06 1.07 1.08 1.09 1.09 1.09 1.09 1.09 1.11 1.14 1.15 1.15 1.13 1.12 1.09 1.06 1.04 1.02 1.02 1.01 1.00 1.00 1.00 1.00 1.00 1.00 1.00 1.00 1.00 1.00 1.00 1.00 1.00 1.00 1.00 1.00 1.00 1.00 1.00 1.00 1.00 1.00 1.00 1.00 1.00 1.00 1.00 1.00 1.00 1.00 1.00 1.00 1.00 1.00 1.01 1.03 1.05 1.07 1.08 1.09 1.08 1.05 1.02 1.00 1.00 1.00 1.00 1.01 1.02 1.02 1.01 1.00 1.00 1.03 1.05 1.06 1.06 1.07 1.06 1.07 1.08 1.10 1.10 1.07 1.05 1.04 1.05 1.05 1.05 1.04 1.03 1.03 1.03 1.04 1.05 1.07 1.08 1.09 1.08 1.09 1.11 1.12 1.13 1.12 1.12 1.11 1.10 1.10 1.09 1.07 1.04 1.02 1.01 1.01 1.02 1.02 1.03 1.04 1.07 1.10 1.13 1.13 1.11 1.06 1.03 1.03 1.04 1.06 1.04 1.04 1.03 1.02 1.02 1.05 1.09 1.09 1.07 1.02 1.01 1.05 1.10 1.10 1.07 1.03 1.02 1.03 1.04 1.04 1.06 1.07 1.09 1.09 1.08 1.05 1.02 1.01 1.00 1.00 1.00 1.00 1.00 1.00 1.00 1.00 1.00 1.00 1.00 1.00 1.00 1.00 1.00
1.00 1.00 1.00 1.00 1.00 1.00 1.00 1.00 1.00 1.00 1.00 1.00 1.00 1.00 1.00 1.00 1.00 1.00 1.00 1.00 1.00 1.01 1.01 1.01 1.01 1.00 1.00 1.00 1.00 1.00 1.00 1.00 1.00 1.00 1.00 1.00 1.00 1.00 1.00 1.00 1.00 1.00 1.00 1.01 1.02 1.02 1.01 1.00 1.00 1.00 1.00 1.01 1.04 1.07 1.06 1.03 1.00 1.00 1.02 1.06 1.09 1.08 1.04 1.03 1.02 1.02 1.02 1.05 1.07 1.06 1.05 1.05 1.07 1.08 1.08 1.07 1.08 1.08 1.07 1.07 1.08 1.11 1.13 1.14 1.14 1.14 1.12 1.10 1.07 1.05 1.04 1.03 1.01 1.00 1.00 1.00 1.00 1.00 1.00 1.00 1.00 1.00 1.00 1.00 1.00 1.00 1.00 1.00 1.00 1.00 1.00 1.00 1.00 1.00 1.00 1.00 1.00 1.00 1.00 1.00 1.00 1.00 1.00 1.00 1.00 1.00 1.01 1.02 1.03 1.04 1.06 1.07 1.08 1.07 1.05 1.01 1.00 1.00 1.00 1.00 1.01 1.03 1.03 1.02 1.00 1.01 1.02 1.03 1.03 1.04 1.06 1.06 1.08 1.09 1.10 1.08 1.05 1.04 1.04 1.04 1.04 1.04 1.03 1.03 1.02 1.02 1.02 1.03 1.05 1.07 1.06 1.07 1.08 1.10 1.12 1.12 1.13 1.13 1.12 1.12 1.12 1.10 1.08 1.05 1.02 1.01 1.01 1.01 1.01 1.01 1.04 1.07 1.11 1.13 1.13 1.09 1.05 1.04 1.08 1.13 1.16 1.16 1.11 1.06 1.02 1.03 1.07 1.11 1.11 1.06 1.03 1.03 1.08 1.12 1.11 1.06 1.02 1.02 1.04 1.05 1.05 1.05 1.07 1.08 1.07 1.06 1.03 1.03 1.02 1.02 1.01 1.01 1.00 1.00 1.00 1.00 1.00 1.00 1.00 1.00 1.00 1.00 1.00 1.00
1.00 1.00 1.00 1.00 1.00 1.00 1.00 1.00 1.00 1.00 1.00 1.00 1.00 1.00 1.00 1.00 1.00 1.00 1.00 1.00 1.00 1.00 1.00 1.00 1.00 1.00 1.00 1.00 1.00 1.00 1.00 1.00 1.00 1.00 1.00 1.00 1.00 1.00 1.00 1.00 1.00 1.00 1.00 1.03 1.04 1.04 1.01 1.00 1.00 1.00 1.00 1.01 1.06 1.08 1.08 1.02 1.00 1.00 1.02 1.05 1.08 1.07 1.04 1.01 1.01 1.02 1.03 1.04 1.04 1.03 1.03 1.06 1.08 1.09 1.07 1.05 1.05 1.05 1.05 1.06 1.08 1.10 1.11 1.12 1.13 1.13 1.13 1.11 1.08 1.08 1.06 1.04 1.01 1.00 1.00 1.00 1.00 1.00 1.00 1.00 1.00 1.00 1.00 1.00 1.00 1.00 1.00 1.00 1.00 1.00 1.00 1.00 1.00 1.00 1.00 1.00 1.00 1.00 1.00 1.00 1.00 1.00 1.00 1.00 1.00 1.00 1.01 1.02 1.03 1.03 1.05 1.06 1.06 1.05 1.03 1.00 1.00 1.00 1.00 1.00 1.01 1.03 1.03 1.01 1.00 1.01 1.01 1.01 1.01 1.01 1.03 1.05 1.08 1.08 1.08 1.05 1.04 1.03 1.03 1.03 1.02 1.03 1.03 1.02 1.01 1.01 1.01 1.03 1.04 1.05 1.05 1.06 1.09 1.10 1.12 1.13 1.14 1.15 1.15 1.15 1.13 1.11 1.08 1.05 1.03 1.02 1.01 1.00 1.00 1.02 1.05 1.09 1.12 1.12 1.10 1.08 1.06 1.08 1.14 1.19 1.23 1.21 1.15 1.08 1.04 1.06 1.09 1.12 1.10 1.07 1.03 1.05 1.08 1.11 1.08 1.04 1.01 1.03 1.06 1.06 1.06 1.05 1.06 1.06 1.06 1.04 1.03 1.03 1.05 1.04 1.03 1.01 1.00 1.00 1.00 1.00 1.00 1.00 1.00 1.00 1.00 1.00 1.00 1.00
1.00 1.00 1.00 1.00 1.00 1.00 1.00 1.00 1.00 1.00 1.00 1.00 1.00 1.00 1.00 1.00 1.00 1.00 1.00 1.00 1.00 1.00 1.00 1.00 1.00 1.01 1.01 1.01 1.00 1.00 1.00 1.00 1.00 1.00 1.00 1.00 1.00 1.00 1.00 1.00 1.00 1.00 1.01 1.05 1.06 1.06 1.01 1.00 1.01 1.02 1.02 1.02 1.08 1.10 1.10 1.03 1.01 1.00 1.01 1.02 1.04 1.03 1.02 1.01 1.04 1.06 1.06 1.04 1.04 1.04 1.05 1.05 1.06 1.05 1.04 1.03 1.03 1.03 1.04 1.05 1.07 1.09 1.10 1.10 1.11 1.12 1.12 1.11 1.10 1.09 1.08 1.04 1.02 1.00 1.00 1.00 1.00 1.00 1.00 1.00 1.00 1.00 1.00 1.00 1.00 1.00 1.00 1.00 1.00 1.00 1.00 1.00 1.00 1.00 1.00 1.00 1.00 1.00 1.00 1.00 1.00 1.00 1.00 1.00 1.00 1.00 1.01 1.01 1.02 1.03 1.03 1.04 1.04 1.02 1.01 1.00 1.00 1.00 1.00 1.00 1.00 1.01 1.01 1.01 1.01 1.01 1.00 1.00 1.00 1.01 1.02 1.05 1.07 1.07 1.05 1.03 1.03 1.02 1.02 1.01 1.02 1.02 1.03 1.02 1.01 1.00 1.01 1.02 1.03 1.04 1.05 1.07 1.09 1.11 1.12 1.14 1.16 1.17 1.17 1.16 1.15 1.12 1.09 1.07 1.05 1.04 1.02 1.01 1.01 1.03 1.07 1.10 1.12 1.11 1.11 1.09 1.09 1.12 1.17 1.22 1.23 1.22 1.15 1.08 1.05 1.08 1.11 1.12 1.10 1.07 1.07 1.08 1.10 1.10 1.08 1.04 1.03 1.04 1.07 1.07 1.07 1.05 1.06 1.05 1.05 1.04 1.04 1.05 1.07 1.07 1.04 1.01 1.00 1.00 1.00 1.00 1.00 1.00 1.00 1.00 1.00 1.00 1.00 1.00
1.00 1.00 1.00 1.00 1.00 1.00 1.00 1.00 1.00 1.00 1.00 1.00 1.00 1.00 1.00 1.00 1.00 1.00 1.00 1.00 1.00 1.01 1.02 1.02 1.02 1.02 1.02 1.01 1.00 1.00 1.00 1.00 1.00 1.00 1.00 1.00 1.00 1.00 1.00 1.00 1.00 1.00 1.02 1.06 1.08 1.06 1.01 1.01 1.04 1.05 1.05 1.01 1.08 1.10 1.11 1.04 1.02 1.02 1.01 1.01 1.02 1.02 1.02 1.03 1.08 1.09 1.09 1.06 1.06 1.05 1.04 1.03 1.02 1.02 1.02 1.02 1.01 1.02 1.03 1.04 1.06 1.07 1.08 1.09 1.10 1.12 1.12 1.11 1.10 1.11 1.09 1.05 1.02 1.00 1.00 1.00 1.00 1.00 1.00 1.00 1.00 1.00 1.00 1.00 1.00 1.00 1.00 1.00 1.00 1.00 1.00 1.00 1.00 1.00 1.00 1.00 1.00 1.00 1.00 1.00 1.00 1.00 1.00 1.00 1.00 1.00 1.01 1.01 1.01 1.01 1.02 1.02 1.01 1.01 1.00 1.00 1.00 1.00 1.00 1.00 1.00 1.00 1.02 1.02 1.02 1.01 1.00 1.00 1.00 1.01 1.03 1.06 1.09 1.08 1.06 1.03 1.02 1.02 1.01 1.01 1.01 1.03 1.03 1.03 1.01 1.00 1.01 1.01 1.02 1.04 1.06 1.09 1.10 1.11 1.13 1.15 1.17 1.19 1.19 1.18 1.16 1.13 1.11 1.09 1.07 1.05 1.02 1.02 1.03 1.07 1.10 1.12 1.13 1.13 1.13 1.12 1.12 1.13 1.15 1.17 1.18 1.15 1.10 1.06 1.06 1.09 1.12 1.13 1.12 1.10 1.09 1.11 1.13 1.14 1.11 1.06 1.03 1.05 1.07 1.08 1.07 1.06 1.06 1.06 1.06 1.05 1.05 1.06 1.07 1.06 1.04 1.01 1.01 1.01 1.00 1.00 1.00 1.00 1.01 1.01 1.02 1.01 1.00 1.00
1.00 1.00 1.00 1.00 1.00 1.00 1.00 1.00 1.00 1.00 1.00 1.00 1.00 1.00 1.00 1.00 1.00 1.00 1.00 1.00 1.01 1.02 1.03 1.03 1.02 1.02 1.02 1.01 1.01 1.01 1.01 1.00 1.00 1.00 1.00 1.00 1.00 1.00 1.00 1.00 1.00 1.00 1.03 1.08 1.08 1.06 1.01 1.02 1.06 1.07 1.06 1.02 1.08 1.09 1.10 1.04 1.04 1.04 1.03 1.01 1.01 1.01 1.02 1.05 1.08 1.08 1.07 1.05 1.05 1.04 1.02 1.01 1.01 1.01 1.02 1.01 1.01 1.01 1.02 1.03 1.04 1.05 1.06 1.07 1.09 1.10 1.09 1.09 1.10 1.10 1.07 1.03 1.01 1.00 1.00 1.00 1.00 1.00 1.00 1.00 1.00 1.00 1.00 1.00 1.00 1.00 1.00 1.00 1.00 1.00 1.00 1.00 1.00 1.00 1.00 1.00 1.00 1.00 1.00 1.00 1.00 1.00 1.00 1.00 1.00 1.00 1.00 1.00 1.00 1.00 1.01 1.01 1.00 1.00 1.00 1.00 1.00 1.00 1.00 1.00 1.00 1.00 1.03 1.03 1.03 1.01 1.00 1.00 1.00 1.01 1.04 1.07 1.09 1.08 1.05 1.02 1.01 1.01 1.00 1.00 1.01 1.03 1.03 1.02 1.00 1.00 1.00 1.01 1.03 1.06 1.08 1.10 1.11 1.12 1.14 1.16 1.18 1.19 1.20 1.20 1.17 1.15 1.13 1.11 1.08 1.05 1.03 1.03 1.06 1.10 1.13 1.14 1.16 1.17 1.18 1.16 1.15 1.14 1.15 1.15 1.14 1.13 1.09 1.07 1.07 1.10 1.13 1.13 1.12 1.11 1.12 1.14 1.17 1.15 1.11 1.06 1.05 1.08 1.09 1.09 1.07 1.08 1.08 1.08 1.07 1.06 1.05 1.06 1.06 1.05 1.04 1.03 1.03 1.02 1.01 1.01 1.00 1.01 1.03 1.04 1.04 1.02 1.00 1.00
1.00 1.00 1.00 1.00 1.00 1.00 1.00 1.00 1.00 1.00 1.00 1.00 1.00 1.00 1.00 1.00 1.00 1.00 1.00 1.00 1.01 1.03 1.03 1.03 1.02 1.02 1.01 1.01 1.02 1.02 1.01 1.00 1.00 1.00 1.00 1.00 1.00 1.00 1.00 1.00 1.00 1.01 1.03 1.07 1.06 1.04 1.01 1.03 1.06 1.06 1.04 1.02 1.06 1.07 1.07 1.05 1.06 1.05 1.03 1.01 1.00 1.01 1.03 1.05 1.05 1.04 1.03 1.03 1.03 1.02 1.01 1.01 1.01 1.02 1.02 1.02 1.01 1.01 1.01 1.02 1.03 1.04 1.05 1.06 1.07 1.07 1.07 1.07 1.07 1.07 1.04 1.01 1.00 1.00 1.00 1.00 1.00 1.00 1.00 1.00 1.00 1.00 1.00 1.00 1.00 1.00 1.00 1.00 1.00 1.00 1.00 1.00 1.00 1.00 1.00 1.00 1.00 1.00 1.00 1.00 1.00 1.00 1.00 1.00 1.00 1.00 1.00 1.00 1.00 1.00 1.00 1.00 1.00 1.00 1.00 1.00 1.00 1.00 1.00 1.00 1.00 1.01 1.03 1.03 1.03 1.00 1.00 1.00 1.00 1.02 1.04 1.07 1.08 1.07 1.03 1.01 1.00 1.00 1.00 1.00 1.01 1.02 1.02 1.01 1.00 1.00 1.01 1.02 1.05 1.07 1.09 1.10 1.11 1.13 1.15 1.16 1.18 1.20 1.21 1.21 1.19 1.16 1.14 1.12 1.09 1.06 1.04 1.05 1.09 1.12 1.15 1.17 1.19 1.20 1.20 1.18 1.16 1.15 1.14 1.14 1.13 1.12 1.09 1.08 1.08 1.10 1.12 1.10 1.10 1.10 1.12 1.15 1.16 1.13 1.07 1.04 1.05 1.11 1.11 1.12 1.09 1.10 1.10 1.10 1.08 1.06 1.04 1.04 1.05 1.06 1.07 1.07 1.06 1.04 1.03 1.02 1.02 1.03 1.05 1.06 1.05 1.03 1.01 1.00
1.00 1.00 1.00 1.00 1.00 1.00 1.00 1.00 1.00 1.00 1.00 1.00 1.00 1.00 1.00 1.00 1.00 1.00 1.00 1.00 1.01 1.01 1.01 1.01 1.01 1.01 1.00 1.01 1.02 1.02 1.01 1.00 1.00 1.00 1.00 1.00 1.00 1.00 1.00 1.00 1.00 1.01 1.02 1.04 1.03 1.02 1.00 1.02 1.03 1.04 1.03 1.03 1.04 1.04 1.03 1.02 1.04 1.03 1.03 1.00 1.00 1.01 1.02 1.02 1.02 1.01 1.00 1.02 1.02 1.02 1.01 1.01 1.01 1.02 1.02 1.03 1.03 1.02 1.02 1.01 1.02 1.03 1.04 1.05 1.05 1.04 1.04 1.04 1.04 1.03 1.01 1.00 1.00 1.00 1.00 1.00 1.00 1.00 1.00 1.00 1.00 1.00 1.00 1.00 1.00 1.00 1.00 1.00 1.00 1.00 1.00 1.00 1.00 1.00 1.00 1.00 1.00 1.00 1.00 1.00 1.00 1.00 1.00 1.00 1.00 1.00 1.00 1.00 1.00 1.00 1.00 1.00 1.00 1.00 1.00 1.00 1.00 1.00 1.00 1.00 1.00 1.01 1.02 1.02 1.01 1.00 1.00 1.00 1.00 1.01 1.04 1.05 1.04 1.02 1.01 1.00 1.00 1.00 1.00 1.00 1.00 1.00 1.00 1.00 1.00 1.01 1.02 1.05 1.07 1.08 1.09 1.10 1.12 1.13 1.15 1.16 1.18 1.20 1.21 1.21 1.20 1.18 1.15 1.12 1.09 1.06 1.05 1.07 1.11 1.14 1.17 1.19 1.20 1.19 1.18 1.16 1.15 1.15 1.15 1.13 1.11 1.09 1.08 1.08 1.09 1.09 1.08 1.07 1.07 1.09 1.12 1.14 1.12 1.07 1.03 1.03 1.05 1.10 1.11 1.12 1.10 1.12 1.13 1.11 1.08 1.05 1.04 1.04 1.06 1.09 1.11 1.11 1.09 1.07 1.05 1.03 1.03 1.04 1.05 1.05 1.04 1.03 1.02 1.01
1.00 1.00 1.00 1.00 1.00 1.00 1.00 1.00 1.00 1.01 1.01 1.01 1.01 1.01 1.00 1.00 1.00 1.00 1.00 1.00 1.00 1.00 1.00 1.00 1.00 1.00 1.00 1.01 1.01 1.01 1.00 1.00 1.00 1.00 1.00 1.00 1.00 1.00 1.00 1.00 1.00 1.00 1.01 1.01 1.01 1.00 1.00 1.01 1.02 1.03 1.02 1.02 1.01 1.01 1.01 1.01 1.02 1.02 1.02 1.00 1.00 1.01 1.01 1.01 1.01 1.00 1.02 1.03 1.03 1.02 1.01 1.00 1.00 1.02 1.04 1.09 1.09 1.07 1.03 1.02 1.02 1.02 1.05 1.05 1.05 1.02 1.02 1.02 1.02 1.01 1.00 1.00 1.01 1.01 1.01 1.00 1.00 1.00 1.00 1.00 1.00 1.00 1.00 1.00 1.00 1.00 1.00 1.00 1.00 1.00 1.00 1.00 1.00 1.00 1.00 1.00 1.00 1.00 1.00 1.00 1.00 1.00 1.00 1.00 1.00 1.00 1.00 1.00 1.00 1.00 1.00 1.00 1.00 1.00 1.00 1.00 1.00 1.00 1.00 1.00 1.00 1.00 1.00 1.00 1.00 1.00 1.00 1.00 1.00 1.01 1.02 1.02 1.01 1.00 1.00 1.00 1.00 1.00 1.00 1.00 1.00 1.00 1.00 1.00 1.01 1.02 1.04 1.06 1.07 1.08 1.09 1.10 1.12 1.13 1.15 1.16 1.18 1.19 1.21 1.21 1.21 1.19 1.16 1.13 1.09 1.07 1.06 1.09 1.13 1.16 1.17 1.18 1.16 1.14 1.12 1.11 1.12 1.12 1.12 1.10 1.09 1.07 1.08 1.08 1.07 1.06 1.05 1.05 1.06 1.08 1.12 1.12 1.09 1.05 1.03 1.04 1.04 1.07 1.10 1.12 1.12 1.14 1.13 1.11 1.07 1.05 1.04 1.06 1.10 1.13 1.15 1.14 1.12 1.09 1.06 1.03 1.03 1.04 1.03 1.03 1.04 1.04 1.03 1.01
1.00 1.00 1.00 1.00 1.00 1.00 1.00 1.00 1.00 1.01 1.02 1.04 1.03 1.02 1.01 1.00 1.00 1.00 1.00 1.00 1.00 1.00 1.00 1.00 1.00 1.00 1.00 1.00 1.00 1.00 1.00 1.00 1.00 1.00 1.00 1.00 1.00 1.00 1.00 1.00 1.00 1.00 1.00 1.00 1.00 1.00 1.00 1.01 1.02 1.02 1.02 1.01 1.00 1.00 1.00 1.01 1.02 1.02 1.01 1.00 1.00 1.01 1.00 1.02 1.02 1.03 1.02 1.04 1.03 1.02 1.00 1.00 1.00 1.01 1.05 1.09 1.12 1.11 1.07 1.04 1.02 1.02 1.05 1.06 1.06 1.02 1.01 1.01 1.00 1.00 1.00 1.01 1.02 1.03 1.01 1.00 1.00 1.00 1.00 1.00 1.00 1.00 1.00 1.00 1.00 1.00 1.00 1.00 1.00 1.00 1.00 1.00 1.00 1.00 1.00 1.00 1.00 1.00 1.00 1.00 1.00 1.00 1.00 1.00 1.00 1.00 1.00 1.00 1.00 1.00 1.00 1.00 1.00 1.00 1.00 1.00 1.00 1.00 1.00 1.00 1.00 1.00 1.00 1.00 1.00 1.00 1.00 1.00 1.00 1.01 1.01 1.01 1.00 1.00 1.00 1.00 1.00 1.00 1.00 1.00 1.00 1.00 1.00 1.01 1.02 1.04 1.05 1.07 1.07 1.08 1.09 1.10 1.12 1.13 1.14 1.16 1.17 1.19 1.20 1.21 1.21 1.20 1.18 1.16 1.11 1.09 1.08 1.11 1.14 1.16 1.16 1.14 1.11 1.08 1.07 1.08 1.10 1.10 1.11 1.10 1.09 1.08 1.07 1.06 1.04 1.03 1.03 1.04 1.05 1.08 1.10 1.10 1.10 1.08 1.08 1.05 1.05 1.06 1.09 1.11 1.12 1.13 1.12 1.09 1.06 1.06 1.07 1.10 1.13 1.15 1.16 1.16 1.13 1.09 1.04 1.03 1.02 1.02 1.01 1.03 1.05 1.05 1.03 1.00
1.00 1.00 1.00 1.00 1.00 1.00 1.00 1.00 1.00 1.02 1.03 1.06 1.05 1.03 1.01 1.00 1.00 1.00 1.00 1.00 1.00 1.00 1.00 1.00 1.00 1.00 1.00 1.00 1.00 1.00 1.00 1.00 1.00 1.00 1.00 1.00 1.00 1.00 1.00 1.00 1.00 1.00 1.00 1.00 1.00 1.00 1.00 1.01 1.02 1.01 1.01 1.00 1.00 1.00 1.01 1.03 1.04 1.04 1.01 1.00 1.01 1.01 1.02 1.03 1.04 1.04 1.04 1.02 1.02 1.00 1.01 1.01 1.01 1.02 1.06 1.10 1.13 1.12 1.08 1.04 1.01 1.02 1.06 1.07 1.06 1.01 1.00 1.00 1.00 1.00 1.01 1.03 1.05 1.04 1.03 1.02 1.02 1.01 1.00 1.00 1.00 1.00 1.00 1.00 1.00 1.00 1.00 1.00 1.00 1.00 1.00 1.00 1.00 1.00 1.00 1.00 1.00 1.00 1.00 1.00 1.00 1.00 1.00 1.00 1.00 1.00 1.00 1.00 1.00 1.00 1.00 1.00 1.00 1.00 1.00 1.00 1.00 1.00 1.00 1.00 1.00 1.00 1.00 1.00 1.00 1.00 1.00 1.00 1.01 1.01 1.01 1.00 1.00 1.00 1.00 1.00 1.00 1.00 1.00 1.00 1.00 1.00 1.00 1.02 1.03 1.05 1.06 1.06 1.07 1.08 1.09 1.10 1.11 1.13 1.14 1.15 1.16 1.18 1.19 1.20 1.21 1.22 1.22 1.21 1.16 1.12 1.11 1.13 1.15 1.13 1.11 1.08 1.05 1.04 1.05 1.07 1.08 1.08 1.09 1.10 1.10 1.07 1.05 1.03 1.02 1.02 1.02 1.03 1.04 1.07 1.10 1.11 1.13 1.14 1.12 1.09 1.06 1.08 1.10 1.11 1.12 1.12 1.10 1.08 1.08 1.10 1.12 1.13 1.14 1.16 1.16 1.14 1.11 1.06 1.03 1.03 1.03 1.02 1.02 1.03 1.04 1.03 1.01 1.00
1.00 1.00 1.00 1.00 1.00 1.00 1.00 1.00 1.00 1.01 1.04 1.05 1.05 1.02 1.00 1.00 1.00 1.00 1.00 1.00 1.00 1.00 1.00 1.00 1.00 1.00 1.00 1.00 1.00 1.00 1.00 1.00 1.00 1.00 1.00 1.00 1.00 1.00 1.00 1.00 1.00 1.00 1.00 1.00 1.00 1.00 1.00 1.01 1.01 1.01 1.01 1.02 1.02 1.01 1.01 1.04 1.04 1.03 1.01 1.01 1.02 1.02 1.02 1.03 1.04 1.04 1.02 1.02 1.02 1.04 1.03 1.05 1.04 1.04 1.04 1.05 1.08 1.09 1.07 1.03 1.00 1.02 1.05 1.05 1.04 1.01 1.01 1.01 1.00 1.00 1.03 1.06 1.06 1.06 1.06 1.06 1.06 1.03 1.01 1.00 1.00 1.00 1.00 1.00 1.00 1.00 1.00 1.00 1.00 1.00 1.00 1.00 1.00 1.00 1.00 1.00 1.00 1.00 1.00 1.00 1.00 1.00 1.00 1.00 1.00 1.00 1.00 1.00 1.00 1.00 1.00 1.00 1.00 1.00 1.00 1.00 1.00 1.00 1.00 1.00 1.00 1.01 1.01 1.01 1.00 1.00 1.00 1.01 1.01 1.01 1.00 1.00 1.00 1.00 1.00 1.00 1.00 1.00 1.00 1.00 1.00 1.00 1.01 1.03 1.04 1.05 1.06 1.06 1.07 1.08 1.09 1.10 1.11 1.12 1.13 1.14 1.16 1.17 1.18 1.20 1.22 1.23 1.26 1.26 1.21 1.15 1.13 1.13 1.12 1.09 1.06 1.03 1.02 1.03 1.05 1.06 1.06 1.06 1.08 1.09 1.08 1.05 1.03 1.01 1.01 1.01 1.01 1.02 1.04 1.07 1.10 1.12 1.15 1.18 1.16 1.13 1.09 1.10 1.10 1.11 1.11 1.11 1.10 1.09 1.11 1.14 1.14 1.14 1.14 1.15 1.13 1.11 1.08 1.06 1.05 1.06 1.07 1.05 1.04 1.04 1.03 1.01 1.00 1.00
1.00 1.00 1.00 1.00 1.00 1.00 1.00 1.00 1.00 1.01 1.03 1.03 1.02 1.01 1.00 1.00 1.00 1.00 1.00 1.00 1.00 1.00 1.00 1.00 1.00 1.00 1.00 1.00 1.00 1.00 1.00 1.00 1.00 1.00 1.00 1.00 1.00 1.00 1.00 1.00 1.00 1.00 1.00 1.00 1.00 1.00 1.00 1.01 1.01 1.03 1.04 1.04 1.03 1.01 1.01 1.02 1.02 1.01 1.00 1.02 1.03 1.03 1.03 1.02 1.03 1.02 1.02 1.02 1.04 1.05 1.06 1.07 1.05 1.03 1.01 1.03 1.05 1.04 1.03 1.01 1.01 1.02 1.03 1.04 1.04 1.04 1.03 1.01 1.00 1.02 1.05 1.07 1.07 1.07 1.11 1.12 1.10 1.05 1.02 1.01 1.00 1.00 1.00 1.00 1.00 1.00 1.00 1.00 1.00 1.00 1.00 1.00 1.00 1.00 1.00 1.00 1.00 1.00 1.00 1.00 1.00 1.00 1.00 1.00 1.00 1.00 1.00 1.00 1.00 1.00 1.00 1.00 1.00 1.00 1.00 1.00 1.00 1.00 1.00 1.02 1.03 1.04 1.03 1.01 1.00 1.00 1.01 1.02 1.02 1.01 1.00 1.00 1.00 1.00 1.00 1.00 1.00 1.00 1.00 1.00 1.00 1.01 1.02 1.03 1.04 1.05 1.05 1.06 1.06 1.07 1.08 1.09 1.10 1.11 1.12 1.14 1.15 1.17 1.18 1.19 1.20 1.23 1.26 1.26 1.23 1.17 1.14 1.11 1.09 1.06 1.04 1.02 1.03 1.04 1.05 1.04 1.04 1.05 1.06 1.06 1.04 1.02 1.01 1.01 1.01 1.01 1.01 1.02 1.05 1.07 1.09 1.11 1.13 1.17 1.15 1.16 1.12 1.12 1.09 1.10 1.10 1.11 1.11 1.12 1.13 1.15 1.15 1.14 1.13 1.12 1.12 1.10 1.09 1.08 1.09 1.11 1.11 1.09 1.07 1.05 1.04 1.03 1.02 1.01
1.00 1.00 1.00 1.00 1.00 1.00 1.00 1.00 1.00 1.01 1.01 1.01 1.01 1.00 1.00 1.00 1.00 1.00 1.00 1.00 1.00 1.00 1.00 1.00 1.00 1.00 1.00 1.00 1.00 1.00 1.00 1.00 1.00 1.00 1.00 1.00 1.00 1.00 1.00 1.00 1.01 1.02 1.02 1.01 1.00 1.00 1.01 1.02 1.03 1.05 1.06 1.05 1.03 1.01 1.01 1.01 1.01 1.01 1.03 1.06 1.07 1.05 1.03 1.01 1.01 1.01 1.02 1.04 1.05 1.07 1.06 1.07 1.04 1.03 1.01 1.02 1.02 1.04 1.03 1.03 1.01 1.01 1.01 1.03 1.04 1.05 1.03 1.01 1.01 1.03 1.06 1.08 1.08 1.10 1.13 1.16 1.15 1.10 1.05 1.01 1.00 1.00 1.00 1.00 1.00 1.00 1.00 1.00 1.00 1.00 1.00 1.00 1.00 1.00 1.00 1.00 1.00 1.00 1.00 1.00 1.00 1.00 1.00 1.00 1.00 1.00 1.00 1.00 1.00 1.00 1.00 1.00 1.00 1.00 1.00 1.00 1.01 1.01 1.02 1.04 1.07 1.08 1.06 1.02 1.01 1.01 1.02 1.02 1.01 1.00 1.00 1.00 1.00 1.00 1.00 1.00 1.00 1.00 1.00 1.00 1.01 1.02 1.03 1.03 1.04 1.04 1.05 1.05 1.06 1.07 1.07 1.08 1.09 1.10 1.12 1.13 1.15 1.16 1.17 1.17 1.17 1.19 1.21 1.22 1.20 1.16 1.13 1.10 1.09 1.07 1.06 1.06 1.07 1.07 1.05 1.03 1.02 1.03 1.03 1.02 1.01 1.00 1.00 1.01 1.01 1.00 1.01 1.03 1.05 1.06 1.06 1.07 1.09 1.12 1.13 1.15 1.14 1.14 1.10 1.09 1.10 1.11 1.12 1.12 1.12 1.12 1.12 1.11 1.11 1.12 1.12 1.12 1.11 1.11 1.14 1.16 1.16 1.13 1.10 1.08 1.09 1.08 1.05 1.01
1.00 1.00 1.00 1.00 1.00 1.00 1.00 1.00 1.00 1.00 1.00 1.01 1.02 1.03 1.02 1.01 1.00 1.00 1.00 1.00 1.00 1.00 1.00 1.00 1.00 1.00 1.00 1.00 1.00 1.00 1.00 1.00 1.00 1.00 1.00 1.00 1.00 1.00 1.00 1.00 1.03 1.04 1.04 1.01 1.00 1.01 1.02 1.04 1.04 1.06 1.05 1.03 1.01 1.00 1.01 1.01 1.02 1.03 1.05 1.07 1.07 1.05 1.03 1.01 1.00 1.01 1.02 1.04 1.06 1.05 1.05 1.02 1.03 1.03 1.03 1.01 1.02 1.05 1.07 1.05 1.01 1.00 1.00 1.02 1.04 1.04 1.02 1.00 1.02 1.04 1.09 1.11 1.12 1.11 1.12 1.14 1.15 1.11 1.06 1.01 1.00 1.00 1.00 1.00 1.00 1.00 1.00 1.00 1.00 1.00 1.00 1.00 1.00 1.00 1.00 1.00 1.00 1.00 1.00 1.00 1.00 1.00 1.00 1.00 1.00 1.00 1.00 1.00 1.00 1.00 1.00 1.00 1.00 1.00 1.00 1.00 1.01 1.02 1.04 1.06 1.09 1.10 1.07 1.03 1.01 1.01 1.02 1.02 1.01 1.00 1.00 1.00 1.00 1.00 1.00 1.00 1.00 1.00 1.00 1.01 1.02 1.02 1.03 1.03 1.03 1.04 1.04 1.04 1.05 1.06 1.06 1.07 1.08 1.10 1.11 1.13 1.14 1.14 1.14 1.13 1.12 1.14 1.16 1.17 1.17 1.15 1.14 1.12 1.12 1.11 1.10 1.11 1.11 1.10 1.05 1.03 1.01 1.01 1.01 1.01 1.00 1.00 1.00 1.00 1.00 1.00 1.01 1.03 1.04 1.03 1.03 1.04 1.06 1.08 1.10 1.13 1.14 1.13 1.10 1.10 1.10 1.11 1.12 1.11 1.11 1.10 1.10 1.10 1.11 1.13 1.14 1.14 1.13 1.14 1.16 1.18 1.18 1.15 1.12 1.11 1.12 1.10 1.05 1.01
1.00 1.00 1.00 1.00 1.00 1.00 1.00 1.00 1.00 1.00 1.01 1.03 1.06 1.06 1.04 1.01 1.00 1.00 1.00 1.00 1.00 1.00 1.00 1.00 1.00 1.00 1.00 1.00 1.00 1.00 1.00 1.00 1.00 1.00 1.00 1.00 1.00 1.00 1.00 1.01 1.03 1.05 1.05 1.02 1.01 1.02 1.03 1.04 1.05 1.04 1.02 1.01 1.00 1.01 1.02 1.02 1.03 1.04 1.05 1.06 1.06 1.03 1.02 1.01 1.01 1.02 1.04 1.08 1.07 1.05 1.02 1.02 1.05 1.06 1.05 1.02 1.05 1.10 1.10 1.06 1.02 1.01 1.01 1.01 1.01 1.01 1.00 1.01 1.03 1.06 1.10 1.12 1.11 1.08 1.07 1.10 1.11 1.10 1.05 1.01 1.00 1.00 1.00 1.00 1.00 1.00 1.00 1.00 1.00 1.00 1.00 1.00 1.00 1.00 1.00 1.00 1.00 1.00 1.00 1.00 1.00 1.00 1.00 1.00 1.00 1.00 1.00 1.00 1.00 1.00 1.00 1.00 1.00 1.00 1.00 1.00 1.01 1.02 1.04 1.05 1.07 1.07 1.06 1.03 1.01 1.01 1.00 1.00 1.00 1.00 1.00 1.00 1.00 1.00 1.00 1.00 1.00 1.00 1.01 1.01 1.01 1.02 1.02 1.03 1.02 1.02 1.03 1.03 1.04 1.04 1.05 1.06 1.08 1.10 1.11 1.12 1.12 1.12 1.10 1.09 1.09 1.11 1.13 1.14 1.15 1.15 1.15 1.15 1.16 1.14 1.12 1.13 1.14 1.12 1.08 1.05 1.03 1.02 1.01 1.00 1.00 1.00 1.00 1.00 1.00 1.00 1.01 1.02 1.02 1.01 1.01 1.03 1.04 1.06 1.08 1.10 1.12 1.10 1.10 1.09 1.09 1.09 1.09 1.09 1.09 1.09 1.09 1.09 1.12 1.15 1.18 1.17 1.16 1.15 1.16 1.18 1.17 1.14 1.12 1.12 1.12 1.08 1.03 1.00
1.00 1.00 1.00 1.00 1.00 1.00 1.00 1.00 1.00 1.01 1.02 1.06 1.08 1.08 1.05 1.02 1.00 1.00 1.00 1.00 1.00 1.00 1.00 1.00 1.00 1.00 1.00 1.00 1.00 1.00 1.00 1.00 1.00 1.00 1.00 1.00 1.01 1.01 1.00 1.01 1.03 1.04 1.04 1.03 1.03 1.04 1.05 1.06 1.05 1.02 1.00 1.00 1.00 1.01 1.02 1.02 1.02 1.02 1.03 1.02 1.01 1.02 1.04 1.04 1.05 1.05 1.09 1.09 1.07 1.03 1.02 1.04 1.08 1.08 1.06 1.04 1.09 1.14 1.12 1.08 1.03 1.02 1.00 1.00 1.00 1.00 1.00 1.01 1.03 1.06 1.08 1.09 1.07 1.04 1.04 1.05 1.06 1.04 1.02 1.00 1.00 1.00 1.00 1.00 1.00 1.00 1.00 1.00 1.00 1.00 1.00 1.00 1.00 1.00 1.00 1.00 1.00 1.00 1.00 1.00 1.00 1.00 1.00 1.00 1.00 1.00 1.00 1.00 1.00 1.00 1.00 1.00 1.00 1.00 1.00 1.00 1.00 1.01 1.02 1.03 1.03 1.04 1.03 1.02 1.00 1.00 1.00 1.00 1.00 1.00 1.00 1.00 1.00 1.00 1.00 1.00 1.00 1.00 1.01 1.01 1.01 1.02 1.02 1.02 1.01 1.01 1.02 1.02 1.03 1.03 1.04 1.06 1.08 1.09 1.10 1.10 1.11 1.10 1.09 1.08 1.08 1.10 1.12 1.14 1.15 1.15 1.16 1.17 1.16 1.14 1.12 1.13 1.14 1.15 1.13 1.10 1.05 1.04 1.02 1.02 1.01 1.01 1.00 1.00 1.00 1.00 1.01 1.01 1.00 1.01 1.01 1.03 1.03 1.05 1.06 1.08 1.08 1.08 1.08 1.07 1.07 1.07 1.08 1.09 1.09 1.08 1.09 1.11 1.14 1.17 1.20 1.22 1.23 1.21 1.19 1.17 1.15 1.12 1.11 1.11 1.07 1.03 1.00 1.00
1.00 1.00 1.00 1.00 1.00 1.00 1.00 1.00 1.00 1.01 1.04 1.06 1.07 1.06 1.04 1.02 1.00 1.00 1.00 1.00 1.00 1.00 1.00 1.00 1.00 1.00 1.00 1.00 1.01 1.02 1.02 1.01 1.00 1.00 1.02 1.03 1.03 1.02 1.00 1.00 1.01 1.02 1.02 1.03 1.05 1.05 1.09 1.08 1.07 1.02 1.00 1.00 1.00 1.01 1.01 1.01 1.01 1.01 1.01 1.00 1.00 1.03 1.05 1.05 1.06 1.07 1.10 1.08 1.06 1.03 1.03 1.06 1.09 1.07 1.05 1.06 1.12 1.15 1.13 1.09 1.05 1.02 1.00 1.00 1.00 1.00 1.00 1.01 1.02 1.04 1.04 1.03 1.02 1.00 1.01 1.02 1.02 1.01 1.00 1.00 1.00 1.00 1.00 1.00 1.00 1.00 1.00 1.00 1.00 1.00 1.00 1.00 1.00 1.00 1.00 1.00 1.00 1.00 1.00 1.00 1.00 1.00 1.00 1.00 1.00 1.00 1.00 1.00 1.00 1.00 1.00 1.00 1.00 1.00 1.00 1.00 1.00 1.01 1.01 1.01 1.01 1.01 1.00 1.00 1.00 1.00 1.00 1.00 1.00 1.00 1.00 1.00 1.00 1.00 1.00 1.00 1.00 1.00 1.01 1.01 1.01 1.01 1.01 1.01 1.00 1.01 1.01 1.01 1.02 1.03 1.04 1.06 1.07 1.08 1.08 1.08 1.10 1.11 1.10 1.09 1.09 1.10 1.12 1.13 1.14 1.15 1.16 1.15 1.13 1.11 1.11 1.11 1.14 1.16 1.16 1.12 1.08 1.05 1.05 1.04 1.03 1.01 1.00 1.00 1.00 1.00 1.00 1.00 1.01 1.01 1.01 1.03 1.04 1.05 1.06 1.06 1.07 1.07 1.06 1.04 1.04 1.06 1.08 1.09 1.09 1.08 1.10 1.12 1.14 1.17 1.21 1.25 1.26 1.22 1.19 1.16 1.13 1.11 1.10 1.08 1.04 1.01 1.00 1.00
