ncols         244
nrows         97
xllcorner     562275
yllcorner     1459396.35805
cellsize      91.363586042674
NODATA_value  -9999
159 144 140 144 138 144 160 144 136 141 136 146 167 186 190 197 220 239 241 243 244 232 227 218 192 199 209 198 195 209 214 207 215 224 226 215 216 217 219 218 209 204 207 209 211 215 218 222 221 227 234 237 240 243 245 248 251 252 254 252 249 248 249 254 258 263 284 312 341 352 354 355 361 370 379 386 389 394 404 421 435 438 440 451 443 451 467 479 487 499 522 546 559 572 583 600 609 609 615 624 625 636 647 660 684 713 737 755 776 805 828 851 870 886 916 936 947 968 976 962 959 975 973 972 980 970 963 963 969 996 1010 1001 990 978 965 951 965 964 952 929 890 863 837 829 836 833 815 788 768 762 748 730 725 710 685 675 676 677 672 659 628 605 593 573 556 549 542 535 522 506 497 483 477 455 435 436 435 425 412 395 386 379 372 369 360 345 337 335 336 338 332 322 307 295 285 281 276 273 270 264 255 250 243 233 228 220 213 210 206 205 198 193 187 182 177 171 163 160 155 147 142 139 136 131 125 123 123 124 130 153 170 193 209 212 193 187 174 162 149 141 124 102 87 81
162 146 129 132 131 145 148 126 137 136 135 150 186 209 215 217 225 233 238 235 234 236 220 195 179 190 204 192 194 204 207 202 216 230 232 214 210 217 212 211 204 203 205 209 212 216 221 225 225 232 238 242 246 246 248 252 255 258 259 257 256 253 248 251 262 277 287 309 331 354 356 360 364 371 379 385 394 403 409 416 423 427 438 451 457 451 461 480 500 509 515 552 570 583 592 607 621 625 633 638 640 651 670 691 713 738 760 775 790 824 859 880 888 907 934 953 974 986 998 998 985 998 1006 1004 1011 1002 1004 999 1000 1035 1049 1040 1019 1016 1000 991 1011 997 982 953 914 886 865 866 868 851 829 814 804 789 768 761 743 715 701 705 701 687 663 646 633 617 603 583 564 562 559 548 529 517 506 494 486 467 448 450 443 433 418 406 398 389 381 371 362 355 355 352 347 345 332 319 304 297 292 290 283 278 270 266 258 251 243 236 231 224 220 217 212 208 202 196 189 184 180 173 170 163 158 154 148 143 137 130 127 126 121 121 119 132 152 188 199 207 199 180 169 165 152 137 120 98 87 74
124 115 119 125 122 123 123 108 127 159 165 160 175 212 222 227 229 234 238 235 232 231 225 201 178 182 195 196 186 192 192 204 225 232 230 215 206 213 211 202 199 206 209 208 210 216 222 226 230 236 239 243 249 250 252 256 257 258 261 259 258 254 252 254 265 281 306 329 338 346 349 358 363 367 373 378 385 392 401 406 414 424 432 448 462 470 467 473 493 512 519 554 567 581 601 619 628 635 645 652 657 662 677 700 734 764 793 813 832 847 872 900 923 927 943 967 988 1010 1022 1032 1022 1026 1046 1048 1044 1047 1049 1052 1048 1066 1085 1065 1040 1048 1037 1029 1045 1028 1005 971 941 919 898 899 886 872 857 869 861 826 805 787 771 748 732 728 710 690 663 655 639 628 613 590 574 574 570 559 544 528 512 506 487 454 466 456 442 430 420 409 400 389 384 374 369 372 370 365 353 344 331 317 306 302 302 295 289 286 276 268 260 251 239 236 231 229 227 222 218 212 207 200 192 185 182 178 169 164 160 161 153 143 137 131 130 127 123 121 119 125 157 184 192 198 203 192 184 166 148 132 115 97 77 62
106 107 117 116 115 116 112 98 106 136 164 189 189 200 227 232 234 234 233 226 229 231 227 211 184 174 185 194 186 183 183 205 210 221 216 208 197 193 195 193 197 205 207 209 214 219 224 229 233 237 239 244 249 253 257 259 259 262 263 266 265 261 262 265 271 294 317 331 338 345 350 355 358 362 373 380 388 396 403 412 422 436 444 443 450 468 480 485 483 491 501 546 571 591 603 622 629 634 647 665 672 676 683 701 730 753 788 826 852 874 893 919 944 971 981 990 1003 1021 1045 1067 1061 1056 1072 1084 1083 1085 1086 1099 1101 1102 1113 1096 1076 1077 1062 1076 1080 1064 1036 996 976 948 931 927 913 899 907 927 905 862 839 829 829 797 766 744 724 708 692 674 650 633 611 595 590 586 581 568 550 535 522 511 490 483 471 453 438 428 424 411 402 397 399 395 386 382 373 366 356 342 331 321 314 313 309 300 293 289 282 275 270 258 244 241 237 235 230 224 218 211 205 199 194 188 182 178 169 164 158 154 147 141 137 135 131 128 125 122 119 122 147 167 176 186 187 175 169 150 137 126 114 92 84 83
98 103 108 107 108 113 108 88 91 123 155 195 207 188 197 222 227 227 229 222 217 224 216 210 196 180 176 180 181 176 175 188 195 216 206 199 191 192 195 199 200 204 208 212 216 222 226 231 234 238 244 247 250 255 260 262 265 267 271 276 279 282 284 297 304 316 323 328 338 343 345 352 364 368 378 384 391 400 405 416 426 434 451 464 459 462 484 497 509 516 521 522 581 603 616 629 637 654 665 666 677 697 709 719 740 759 788 819 853 885 920 950 975 1004 1023 1027 1035 1042 1056 1083 1102 1097 1104 1117 1124 1121 1118 1135 1142 1140 1135 1129 1114 1103 1099 1120 1107 1094 1068 1035 1011 972 964 964 947 940 957 970 935 886 871 879 862 825 794 769 747 725 718 694 657 639 626 615 609 602 591 572 557 543 533 516 509 500 464 455 447 439 431 420 415 415 409 404 394 387 377 366 356 345 337 330 325 321 314 304 299 293 289 280 270 261 253 246 245 240 230 227 220 210 204 198 195 187 181 176 175 165 158 152 147 143 139 137 134 130 125 121 119 117 123 157 176 175 165 150 155 141 116 107 104 111 122 125
89 98 100 98 104 108 98 84 87 118 147 176 172 155 155 184 210 220 225 224 214 216 210 200 194 190 175 168 173 177 170 175 188 200 194 190 187 193 196 201 203 206 210 214 217 221 226 232 235 240 247 251 251 254 259 265 269 271 277 282 282 299 312 313 315 318 323 330 337 343 349 358 369 373 383 391 401 413 418 428 438 442 444 460 469 472 474 492 507 523 537 547 580 600 623 643 649 669 691 686 690 707 739 750 763 790 807 829 855 884 922 968 1004 1028 1050 1059 1070 1069 1075 1089 1123 1143 1149 1154 1166 1155 1152 1178 1177 1171 1164 1167 1154 1138 1145 1150 1133 1122 1097 1074 1044 1005 1008 995 982 975 994 999 954 911 903 910 888 851 822 800 766 749 737 705 670 652 638 629 623 616 596 576 567 552 533 528 523 500 484 468 458 448 433 430 426 424 416 407 399 388 378 371 361 354 344 336 332 329 319 311 302 293 287 279 270 265 256 252 251 241 233 229 222 212 204 201 194 187 185 177 173 168 161 154 150 147 140 136 133 130 126 121 117 115 121 155 176 161 136 115 128 150 151 149 146 147 133 134
83 90 92 92 97 102 93 85 85 108 127 138 136 142 172 195 198 209 216 220 215 209 206 200 197 186 169 168 171 170 168 175 183 187 187 184 184 192 196 200 203 206 212 215 221 224 227 230 232 235 239 242 246 251 255 261 266 274 281 284 296 303 303 306 313 319 328 335 342 347 352 357 365 373 383 393 400 412 425 436 449 453 453 456 465 478 485 491 509 529 543 560 592 611 635 652 667 676 700 705 709 728 744 773 793 820 846 861 876 898 922 963 1008 1045 1075 1085 1097 1106 1115 1124 1150 1168 1179 1183 1191 1196 1195 1207 1214 1209 1197 1197 1186 1174 1181 1169 1164 1153 1136 1119 1067 1049 1051 1042 1029 1013 1024 1020 977 941 927 920 899 874 845 824 799 774 746 710 687 664 652 644 642 628 604 588 573 555 535 536 535 519 505 480 467 455 449 444 438 431 417 408 397 391 382 376 366 362 352 345 339 332 324 315 306 296 287 280 272 268 263 257 252 245 232 228 223 215 206 201 199 192 187 182 178 171 163 159 153 145 143 138 132 128 125 121 117 114 112 137 152 137 124 101 95 120 150 161 152 130 95 92
83 90 86 87 89 93 94 86 84 84 103 111 121 161 196 206 208 211 210 207 208 203 201 195 191 180 167 167 171 168 170 172 177 180 180 182 186 190 193 199 202 208 211 215 218 220 221 224 229 234 239 244 249 253 258 266 272 273 277 285 292 294 305 314 316 321 329 334 339 347 354 361 370 379 387 389 394 405 421 436 454 465 467 465 471 481 494 504 511 530 551 564 605 624 645 672 685 683 704 729 731 737 756 779 811 837 869 896 914 932 955 985 1011 1043 1079 1111 1126 1147 1158 1161 1174 1194 1206 1220 1223 1233 1239 1252 1259 1259 1242 1243 1227 1211 1213 1201 1203 1191 1177 1146 1107 1098 1096 1090 1071 1052 1053 1032 986 954 947 929 909 889 864 843 819 788 753 726 696 686 671 659 649 625 607 593 576 562 545 544 539 530 519 488 473 461 460 455 447 437 425 414 406 397 386 381 377 368 361 350 344 337 326 319 313 301 292 286 278 271 264 255 249 240 233 226 222 217 209 205 203 198 189 183 177 173 166 158 152 153 155 145 134 129 126 122 118 113 111 118 125 109 104 101 91 95 115 122 113 99 79 73
78 84 86 87 89 93 87 92 88 83 88 105 122 143 163 176 184 187 187 190 193 196 199 194 182 165 163 165 167 167 169 168 171 174 175 178 184 188 189 193 196 201 206 210 212 215 220 228 232 236 243 248 249 254 259 268 274 276 278 284 290 293 306 315 320 325 331 337 344 348 352 361 369 374 377 383 391 404 418 435 453 467 480 481 485 491 499 513 524 526 537 544 584 628 642 670 692 699 714 739 754 760 767 784 810 844 879 908 937 965 1000 1027 1055 1071 1085 1119 1158 1184 1198 1196 1196 1220 1242 1255 1265 1272 1284 1296 1301 1304 1289 1292 1272 1248 1248 1244 1246 1235 1220 1187 1161 1151 1145 1126 1103 1090 1072 1035 1005 986 980 956 925 902 879 851 825 798 759 725 722 712 687 668 653 628 617 603 584 569 558 557 549 538 521 496 479 472 465 458 451 442 431 424 414 408 399 389 380 375 367 356 350 343 333 326 317 308 297 287 281 272 263 257 247 240 234 231 223 215 210 201 199 196 190 184 178 172 167 160 157 155 154 146 137 132 128 123 119 115 111 111 108 101 97 94 90 88 91 87 84 80 76 72
73 76 78 82 84 83 87 92 88 83 82 94 104 109 116 141 158 164 176 182 183 190 199 198 179 162 160 164 166 165 166 165 168 173 176 180 185 189 193 195 198 203 206 210 215 221 225 230 235 241 249 253 255 261 264 272 277 282 284 290 298 303 305 310 317 328 334 339 345 351 357 363 368 376 382 389 398 407 421 439 454 462 476 492 497 500 505 517 528 534 543 555 565 602 609 632 691 718 725 743 761 778 793 801 826 862 894 921 953 988 1026 1061 1101 1119 1128 1143 1172 1211 1228 1239 1241 1239 1261 1288 1297 1305 1324 1341 1351 1355 1342 1342 1314 1293 1298 1299 1293 1281 1269 1233 1218 1199 1181 1151 1132 1119 1093 1059 1035 1023 1007 968 933 923 903 851 814 785 757 752 735 718 700 688 670 648 627 599 580 576 575 565 554 538 522 507 487 482 473 468 459 446 437 428 420 415 404 395 382 374 366 357 348 341 332 325 321 312 299 285 278 269 265 257 248 241 233 227 219 215 212 206 202 197 189 184 180 173 170 163 159 154 149 142 137 132 127 124 121 115 112 109 105 100 97 92 90 87 84 83 83 79 74 71
73 74 76 78 80 80 81 86 83 82 82 94 104 98 115 157 175 186 193 197 198 202 201 187 174 170 158 163 163 164 163 165 168 173 178 183 186 188 191 195 199 207 212 212 221 227 229 234 237 243 249 253 259 263 269 277 281 284 289 295 303 310 312 317 319 323 333 341 345 353 362 368 372 379 387 395 405 412 423 438 454 469 477 491 509 511 514 528 538 552 560 566 584 627 649 635 654 710 735 746 758 776 799 817 841 865 890 924 955 993 1039 1073 1105 1136 1164 1187 1208 1236 1255 1269 1291 1296 1299 1320 1338 1341 1358 1378 1390 1398 1388 1380 1345 1331 1348 1342 1329 1313 1303 1274 1259 1236 1212 1183 1160 1144 1113 1082 1073 1059 1022 977 957 944 907 870 838 803 782 762 744 728 714 700 673 644 620 610 598 595 581 570 557 540 524 510 500 493 482 473 467 453 441 434 424 411 402 398 387 377 365 357 347 337 327 319 316 309 294 284 281 275 273 266 255 245 233 228 220 214 212 209 204 201 191 183 178 173 168 164 162 154 146 140 136 133 126 122 119 114 112 107 104 100 96 94 92 89 84 81 78 74 70 68
74 73 75 76 77 80 81 82 85 80 76 80 87 98 115 157 175 158 167 193 197 188 185 186 186 170 158 159 160 160 162 165 170 173 176 180 185 189 193 199 201 206 211 217 222 227 231 235 239 244 246 255 262 266 272 280 281 286 291 298 305 313 316 321 324 322 332 344 350 359 365 373 379 384 388 394 403 417 429 445 458 473 485 497 509 519 529 539 547 558 572 585 591 632 673 693 680 675 717 748 760 776 796 817 834 854 872 908 945 980 1021 1059 1101 1139 1175 1209 1244 1263 1282 1302 1320 1331 1344 1356 1374 1384 1394 1409 1429 1440 1430 1414 1388 1384 1395 1395 1372 1352 1340 1316 1285 1267 1244 1217 1193 1166 1136 1123 1110 1070 1031 1007 988 957 918 896 862 828 795 779 760 746 733 706 665 644 631 621 617 607 593 584 573 545 528 515 513 499 490 481 471 462 451 438 427 413 401 392 379 371 361 351 343 334 328 318 308 300 294 288 282 276 271 267 260 247 237 230 225 218 212 209 200 196 190 183 176 173 168 165 159 151 145 139 136 133 128 123 118 116 112 110 105 102 97 96 91 90 84 79 77 76 72 69
75 75 76 76 79 79 80 83 86 83 84 84 80 85 109 150 160 158 167 193 197 163 189 206 194 172 158 158 158 156 162 165 171 174 176 182 187 191 194 200 202 208 214 217 223 225 230 235 241 246 249 256 264 267 275 279 282 287 293 301 311 315 319 326 330 332 332 343 351 359 366 373 381 391 395 399 404 412 426 443 454 474 488 505 512 516 526 538 549 559 571 587 605 628 671 698 716 715 703 712 730 761 792 811 822 840 879 934 954 985 1032 1069 1094 1126 1172 1209 1247 1282 1308 1337 1359 1368 1378 1394 1402 1425 1436 1446 1467 1485 1478 1459 1432 1438 1451 1444 1417 1397 1381 1351 1319 1303 1276 1254 1244 1206 1186 1173 1136 1087 1059 1035 1007 973 940 903 871 839 819 797 777 758 738 696 672 656 641 642 634 621 607 592 576 559 546 535 520 506 495 483 474 466 455 441 429 417 402 389 379 373 362 351 343 333 326 315 310 305 300 288 281 275 271 266 261 257 244 235 228 222 216 212 201 191 187 184 179 174 169 165 157 149 145 141 136 132 128 123 116 116 112 109 105 103 99 94 91 88 82 79 77 74 72 68
76 79 79 79 77 79 82 82 85 89 93 95 84 82 95 112 121 123 131 148 158 163 189 206 189 169 154 154 155 155 159 164 171 175 178 182 187 190 194 200 202 209 214 217 221 226 230 237 240 246 252 258 265 270 279 280 282 293 299 306 312 317 322 329 335 339 339 343 353 365 374 379 384 393 402 411 415 419 427 434 443 456 467 478 493 509 519 531 546 561 579 595 604 625 658 691 714 737 753 749 751 790 824 837 846 859 876 920 981 1024 1061 1097 1129 1136 1160 1204 1243 1280 1328 1372 1399 1417 1421 1434 1439 1460 1482 1490 1502 1522 1525 1501 1479 1490 1503 1485 1464 1443 1424 1394 1363 1338 1314 1303 1295 1255 1231 1194 1144 1112 1080 1046 1012 986 947 910 881 859 832 807 778 755 733 720 705 684 674 664 645 629 610 595 581 570 558 549 536 513 501 492 483 472 456 438 431 416 403 393 382 378 366 357 349 337 323 317 311 304 299 292 285 276 270 262 256 256 251 239 232 224 216 211 206 195 188 186 180 174 169 167 160 152 146 140 136 133 128 123 120 116 112 109 107 104 98 96 92 87 82 78 77 73 72 68
76 79 80 80 81 81 89 90 86 90 98 101 91 84 88 101 113 114 115 128 143 170 189 197 189 169 154 154 152 154 160 167 171 174 177 181 186 190 196 200 203 208 214 219 221 227 231 237 243 248 252 258 264 270 279 284 287 298 307 311 315 321 325 330 335 342 347 347 350 362 375 383 388 394 407 417 426 433 441 453 466 476 484 476 475 490 507 525 540 551 567 584 600 619 655 680 695 714 735 752 775 792 811 831 847 871 900 919 952 1003 1055 1110 1160 1193 1205 1207 1258 1279 1319 1374 1425 1462 1468 1468 1482 1496 1518 1532 1542 1558 1563 1543 1530 1543 1553 1527 1511 1492 1464 1431 1405 1381 1370 1360 1321 1292 1255 1205 1166 1141 1107 1063 1028 1003 973 933 902 872 852 830 812 783 755 742 726 713 699 684 664 650 641 622 601 579 565 553 539 521 510 498 486 472 457 445 431 417 405 396 386 382 368 353 344 335 327 322 317 310 302 295 285 274 271 265 254 247 244 238 230 224 216 211 205 196 191 187 183 177 170 162 158 151 144 141 137 132 129 125 121 116 111 107 106 102 96 95 90 86 84 78 77 72 72 69
75 79 81 83 95 95 99 95 86 86 98 102 98 94 96 102 104 101 119 139 163 175 170 182 174 158 149 152 152 154 160 167 172 175 177 181 185 190 196 200 203 207 213 217 220 226 231 237 243 248 252 257 262 269 276 285 290 297 305 308 315 322 326 331 334 343 353 358 356 358 367 374 381 392 404 416 428 435 442 450 462 476 485 494 495 494 498 509 525 539 549 565 582 597 645 661 679 703 727 738 757 782 815 831 851 873 890 909 935 987 1040 1094 1143 1204 1258 1258 1277 1308 1346 1382 1434 1491 1518 1515 1522 1536 1557 1575 1587 1600 1607 1598 1590 1595 1597 1566 1561 1538 1497 1474 1453 1435 1423 1399 1362 1321 1271 1229 1195 1163 1122 1088 1059 1027 988 948 918 888 864 843 827 798 771 763 755 740 728 714 693 670 659 644 630 612 587 560 547 526 514 500 485 471 456 445 437 419 408 394 386 379 367 355 349 339 335 326 320 315 305 296 288 280 273 264 252 245 241 233 226 220 214 206 200 193 189 186 180 173 172 167 160 155 152 145 139 137 133 124 120 115 113 107 105 100 96 93 87 85 79 77 75 72 70 67
77 79 80 81 90 87 87 88 87 85 88 98 98 95 95 93 93 104 128 149 159 151 148 170 166 151 147 148 151 158 164 169 172 175 177 179 184 188 192 197 205 208 212 218 223 227 229 236 243 248 253 257 261 269 277 282 288 295 300 306 312 319 327 334 337 345 352 358 365 369 371 377 380 388 397 408 416 427 441 450 455 469 480 488 498 512 525 531 539 551 560 557 566 601 651 663 679 697 716 728 755 787 831 861 857 854 877 908 934 963 1011 1079 1154 1198 1242 1294 1306 1331 1378 1418 1468 1519 1562 1568 1569 1589 1599 1621 1634 1644 1653 1653 1640 1640 1639 1614 1600 1567 1546 1531 1505 1490 1462 1434 1384 1335 1290 1253 1220 1183 1152 1124 1084 1040 993 967 933 904 885 865 835 820 804 790 768 746 727 712 695 672 654 636 623 619 605 576 554 525 512 500 488 472 459 449 437 421 408 396 385 373 364 358 349 343 338 333 327 321 311 299 287 279 273 267 252 249 241 236 231 226 219 212 208 205 198 192 186 178 174 166 161 158 153 148 142 137 131 125 122 116 112 108 105 100 96 92 86 85 80 77 75 73 69 65
79 79 80 83 84 83 83 85 86 86 87 88 90 86 86 88 95 112 122 145 142 131 147 166 158 148 145 146 153 161 164 170 172 174 175 179 184 188 192 197 201 207 208 217 223 226 230 236 241 247 253 258 263 270 276 282 286 292 296 304 309 315 323 333 342 347 352 364 375 381 384 387 392 397 405 408 414 423 434 446 453 462 467 477 487 499 517 532 544 561 573 584 584 587 624 654 671 688 711 734 767 815 868 923 963 921 884 884 920 971 1005 1048 1136 1229 1274 1301 1338 1353 1400 1451 1499 1552 1602 1612 1616 1642 1651 1664 1678 1691 1702 1700 1690 1690 1688 1667 1644 1614 1590 1578 1564 1537 1505 1460 1403 1365 1325 1288 1245 1216 1185 1144 1102 1065 1032 1005 968 934 904 886 865 844 820 802 775 752 735 716 693 671 651 636 622 611 600 587 565 555 506 492 480 465 454 444 432 417 405 395 387 376 368 364 354 344 339 335 328 322 313 299 289 277 268 258 248 246 240 236 229 223 220 214 206 205 198 194 190 181 177 167 161 157 152 147 138 134 131 126 121 118 112 108 106 99 97 92 87 81 79 79 75 71 69 66
77 80 82 82 84 85 83 85 88 87 90 90 90 88 92 96 94 102 113 123 127 117 142 159 151 140 141 151 159 161 165 169 172 174 176 178 184 190 195 197 201 207 208 215 220 225 228 234 242 246 251 257 263 268 276 281 285 288 296 300 308 315 319 331 343 347 356 365 372 378 384 392 395 400 407 413 422 430 433 438 448 459 469 475 486 499 513 520 530 558 572 588 601 613 624 655 662 672 710 767 797 846 882 927 984 996 971 940 939 974 1017 1054 1130 1249 1303 1340 1360 1401 1428 1473 1528 1578 1637 1662 1662 1680 1704 1717 1733 1742 1754 1747 1746 1747 1742 1715 1692 1664 1638 1630 1609 1576 1535 1491 1450 1396 1354 1318 1286 1249 1201 1162 1129 1097 1065 1030 992 962 933 905 883 856 827 802 787 772 751 730 702 676 654 641 625 610 593 578 564 555 518 503 486 473 455 437 428 420 408 399 390 378 369 363 355 345 337 331 323 314 307 298 288 273 266 255 248 243 237 233 230 225 219 213 202 200 196 194 190 181 177 169 161 156 152 147 139 134 129 124 119 115 113 109 108 102 98 94 89 84 81 78 75 70 69 65
80 81 82 84 86 87 88 89 90 90 90 92 109 104 100 105 111 110 111 116 117 119 129 143 144 137 142 151 156 159 163 167 169 173 176 181 187 192 196 198 203 208 212 215 220 225 231 238 244 246 250 257 261 267 273 279 284 287 296 303 308 312 322 332 339 346 353 357 362 371 379 387 393 400 409 419 432 440 447 457 462 466 472 483 493 502 514 536 553 573 582 585 594 605 619 643 657 676 702 763 808 847 880 915 971 1026 1061 1054 1044 1048 1066 1103 1149 1218 1299 1362 1405 1443 1486 1512 1553 1605 1668 1708 1705 1716 1753 1769 1790 1802 1808 1803 1801 1801 1793 1770 1745 1716 1697 1684 1660 1614 1569 1526 1485 1436 1393 1351 1311 1268 1232 1186 1160 1126 1095 1057 1020 989 953 923 895 866 840 822 802 775 753 733 716 697 676 657 628 607 593 580 564 551 530 521 509 489 471 445 431 426 414 404 392 378 369 357 353 342 334 324 316 307 300 293 284 273 266 261 253 245 240 236 232 226 219 210 204 203 197 191 188 181 175 167 162 157 151 147 138 134 128 124 120 115 112 112 107 105 97 93 88 85 84 80 73 70 68 65
80 82 82 83 87 91 90 90 94 93 93 91 111 119 115 110 121 135 132 132 138 146 145 145 140 136 142 149 154 158 161 166 171 175 177 183 187 191 195 200 203 207 212 216 223 223 231 238 244 246 249 253 258 263 271 279 284 289 297 304 307 313 323 333 338 341 344 353 359 368 376 382 392 398 410 422 428 441 454 467 478 487 499 508 514 513 520 545 566 589 607 618 612 609 622 642 673 713 727 750 799 846 891 957 1003 1045 1085 1111 1124 1137 1155 1187 1208 1239 1297 1366 1420 1479 1530 1566 1596 1639 1691 1739 1749 1759 1795 1824 1841 1860 1863 1860 1863 1862 1842 1821 1795 1774 1754 1732 1700 1654 1611 1564 1517 1471 1419 1376 1323 1278 1237 1216 1185 1151 1119 1081 1047 1018 983 948 920 890 866 840 805 779 751 728 711 693 677 660 631 606 586 574 565 551 523 511 500 481 466 449 442 429 416 411 403 385 374 360 351 341 333 324 316 306 297 293 283 274 269 264 254 246 242 236 226 222 218 207 205 206 197 187 183 176 170 167 162 157 150 145 139 134 132 125 121 117 111 107 102 99 96 91 86 82 81 78 72 71 69 66
80 82 81 87 92 93 89 91 93 94 96 92 104 113 107 120 132 150 155 159 165 164 151 145 137 135 145 149 154 158 163 167 174 178 179 183 189 192 196 199 202 207 211 217 222 225 232 240 245 247 249 253 258 265 271 275 282 286 293 302 304 307 316 324 327 339 348 356 362 371 376 384 396 404 413 425 435 447 456 465 472 485 499 512 523 529 535 534 555 585 609 625 642 641 632 666 697 742 781 797 826 876 927 985 1024 1050 1080 1114 1137 1164 1196 1232 1262 1288 1321 1376 1435 1495 1550 1603 1648 1689 1732 1776 1794 1807 1838 1877 1897 1915 1921 1923 1924 1919 1899 1875 1848 1831 1810 1776 1736 1685 1642 1593 1537 1479 1427 1378 1335 1310 1278 1240 1207 1169 1135 1100 1070 1036 996 959 929 902 871 844 819 788 755 728 709 693 670 647 624 608 587 569 556 544 531 500 486 478 465 454 443 433 421 411 400 387 375 366 354 343 332 324 319 310 303 299 289 279 271 263 254 249 245 234 224 222 214 210 206 205 196 189 183 179 172 166 162 158 152 145 138 134 131 125 118 114 110 107 101 98 94 89 87 82 82 80 74 73 70 65
80 79 83 86 88 87 90 91 92 94 96 97 96 107 100 117 136 160 160 162 156 151 144 137 133 136 149 154 157 159 160 166 172 176 180 184 189 192 195 201 204 207 212 217 223 226 230 239 242 245 249 253 259 265 271 275 282 280 286 291 296 302 315 321 328 339 349 357 364 374 380 388 399 410 421 433 441 455 467 475 483 492 502 517 529 539 550 552 546 567 592 622 651 671 676 663 710 734 794 831 857 901 949 991 1032 1074 1109 1136 1174 1209 1235 1265 1298 1338 1362 1387 1445 1506 1566 1624 1677 1731 1781 1813 1840 1856 1884 1920 1952 1975 1982 1986 1985 1977 1958 1933 1911 1886 1857 1819 1770 1713 1664 1603 1552 1493 1454 1411 1374 1337 1295 1252 1219 1182 1145 1106 1074 1034 1000 964 927 896 866 841 811 783 760 739 713 694 666 638 616 600 588 576 561 541 526 498 489 476 464 450 439 432 422 409 396 387 377 367 355 346 334 327 321 312 305 297 290 281 274 268 261 249 243 233 227 224 221 217 208 201 195 187 183 178 171 165 161 157 152 144 136 130 128 121 116 114 110 106 103 99 94 89 87 84 81 78 75 74 71 67
79 80 83 87 89 89 91 93 95 97 98 98 98 102 97 103 122 143 149 143 134 131 134 129 129 144 151 153 155 158 160 165 169 172 176 180 184 188 194 201 203 206 211 218 221 224 229 235 239 243 247 251 256 263 267 270 274 280 286 291 301 309 318 323 333 342 350 361 370 379 385 393 402 411 424 434 444 455 468 475 490 500 509 516 528 544 554 563 562 563 589 623 651 679 693 693 727 745 777 830 872 908 956 994 1034 1077 1125 1156 1185 1222 1266 1308 1345 1374 1415 1445 1476 1513 1565 1624 1687 1744 1800 1855 1886 1908 1940 1970 2005 2030 2043 2049 2049 2040 2018 1995 1972 1941 1896 1832 1777 1728 1675 1624 1572 1530 1485 1436 1386 1347 1295 1255 1219 1183 1148 1117 1070 1026 992 958 924 892 861 832 804 780 750 726 702 678 660 634 614 594 581 573 565 552 535 497 482 471 461 452 438 425 414 401 386 380 372 360 349 344 335 329 320 314 305 297 289 283 276 270 261 249 245 236 228 227 221 211 204 198 193 185 182 176 172 167 160 153 151 148 138 130 125 120 116 111 107 105 101 96 93 91 88 84 81 79 76 73 73 69
81 81 84 87 87 88 92 94 98 99 101 100 101 102 100 112 134 135 133 127 125 126 128 125 130 147 149 150 152 156 159 164 167 172 172 176 181 186 190 198 201 204 210 215 221 225 226 230 237 241 245 248 253 259 261 270 278 285 290 292 301 309 318 323 335 344 352 362 374 384 389 398 404 413 423 436 448 455 465 478 490 501 512 524 530 545 559 567 576 581 583 599 631 668 695 720 768 788 803 835 880 921 962 995 1031 1067 1104 1125 1158 1202 1249 1293 1340 1390 1430 1475 1522 1548 1576 1631 1701 1750 1796 1858 1919 1966 1994 2017 2055 2087 2104 2112 2108 2098 2076 2055 2026 1978 1927 1865 1801 1752 1712 1648 1602 1559 1508 1454 1400 1354 1303 1260 1216 1171 1134 1106 1067 1025 995 958 923 896 868 831 799 774 750 718 691 667 642 622 610 593 575 566 562 551 540 507 481 466 459 449 437 420 408 401 388 379 370 363 352 343 334 329 322 316 306 297 289 284 276 268 259 253 247 237 228 225 220 212 209 202 194 186 181 176 170 164 155 148 142 139 135 127 125 120 114 110 107 101 99 95 91 86 84 82 82 78 75 75 72 75
79 84 84 84 86 91 94 93 97 99 99 102 106 103 108 126 137 125 119 120 120 120 121 126 133 141 149 150 151 152 157 161 162 167 173 176 181 184 190 195 200 205 211 216 220 222 225 228 233 239 242 246 249 260 266 273 279 285 289 294 303 308 315 324 335 344 352 365 377 388 396 402 411 421 428 438 446 455 465 479 489 500 508 514 526 544 558 571 582 599 609 608 620 662 687 718 786 809 832 862 891 930 967 1005 1036 1065 1103 1138 1174 1215 1252 1294 1329 1373 1427 1487 1535 1584 1625 1652 1710 1772 1828 1875 1933 1998 2045 2074 2106 2143 2167 2176 2175 2159 2137 2113 2065 2006 1951 1892 1840 1787 1740 1681 1618 1569 1504 1453 1404 1356 1314 1272 1225 1181 1139 1103 1060 1024 991 966 934 901 867 829 798 769 743 715 687 665 642 619 605 590 574 562 559 545 536 522 491 466 451 444 434 424 415 406 397 390 381 372 359 348 339 334 329 321 314 304 292 281 273 264 257 250 243 234 228 222 218 212 207 199 190 184 175 168 168 164 153 145 139 131 130 127 123 118 112 109 107 102 98 93 88 85 83 80 82 79 74 75 75 78
75 82 84 84 85 88 91 93 98 101 103 107 108 107 109 121 122 114 116 118 117 118 124 130 137 140 145 147 149 154 158 162 166 170 172 176 180 188 191 194 199 202 209 214 216 220 225 229 233 238 240 242 250 259 263 269 275 279 285 293 300 306 316 325 336 346 355 365 377 388 396 404 414 422 429 436 445 454 465 476 483 488 492 501 517 538 561 574 589 605 619 629 624 647 675 704 746 812 836 865 900 931 962 990 1017 1047 1093 1142 1184 1224 1262 1295 1345 1387 1429 1477 1526 1582 1636 1700 1746 1791 1850 1904 1964 2014 2075 2118 2162 2193 2233 2245 2242 2228 2200 2155 2102 2041 1990 1929 1877 1828 1754 1710 1642 1572 1512 1470 1419 1377 1334 1296 1240 1188 1142 1100 1057 1018 990 960 928 892 855 820 793 767 739 713 684 656 635 611 588 563 540 541 534 528 524 518 483 459 439 434 433 422 411 401 394 387 381 374 364 354 342 334 327 322 315 307 298 285 276 266 258 249 246 240 232 224 218 212 209 201 192 184 177 172 167 161 153 144 135 130 126 124 118 116 112 109 104 99 96 91 88 86 82 78 79 78 75 76 79 88
79 80 85 86 87 88 93 96 99 102 103 104 105 106 111 110 113 114 115 115 116 120 125 138 137 137 141 148 150 154 157 162 166 169 172 176 179 183 190 193 196 200 204 209 213 216 222 227 231 233 238 245 251 257 260 267 274 280 287 294 299 309 316 323 333 343 354 370 380 388 398 404 414 422 414 421 434 447 452 463 470 476 493 503 516 536 560 575 593 609 622 637 646 649 663 698 736 790 833 866 904 944 971 995 1023 1051 1095 1139 1186 1226 1274 1319 1362 1404 1445 1488 1531 1584 1649 1712 1773 1827 1886 1927 1972 2032 2093 2155 2205 2254 2296 2316 2315 2289 2252 2194 2134 2066 2017 1958 1889 1843 1766 1710 1661 1588 1531 1483 1430 1386 1342 1305 1260 1203 1156 1114 1056 1011 984 959 925 884 854 818 790 760 734 706 676 648 620 584 568 560 558 548 531 513 489 489 452 436 427 414 412 409 401 396 391 380 373 367 356 349 343 335 326 320 310 302 293 284 277 267 258 251 247 238 233 226 221 215 204 198 190 182 176 171 163 157 149 142 135 131 125 119 115 113 109 107 103 99 96 92 89 85 82 81 77 79 85 78 78 94
80 78 82 85 87 89 95 99 99 100 100 102 104 104 109 106 109 111 112 113 126 135 138 139 138 138 141 145 150 152 157 162 163 167 170 173 177 182 185 190 196 197 203 207 212 216 221 224 226 230 237 244 248 254 262 270 276 281 285 293 300 308 316 323 333 344 354 365 376 385 393 402 410 414 414 421 434 441 446 456 462 474 490 501 513 533 550 571 592 609 623 640 655 676 691 709 741 795 810 837 870 908 944 977 1013 1058 1105 1139 1182 1226 1275 1325 1365 1400 1446 1495 1548 1599 1655 1710 1768 1836 1902 1963 2012 2066 2117 2177 2240 2312 2361 2389 2382 2343 2279 2223 2154 2075 2040 1966 1907 1844 1783 1716 1663 1599 1536 1482 1428 1375 1328 1291 1253 1215 1168 1120 1072 1026 1002 964 924 886 850 817 787 748 722 697 677 653 628 612 596 583 574 561 541 524 505 490 463 457 449 439 417 399 387 381 386 380 373 363 352 345 337 330 326 318 310 300 292 288 280 269 261 254 247 240 232 227 220 214 203 194 187 183 177 172 164 159 148 138 131 128 122 116 114 109 106 105 102 99 93 89 86 88 87 84 79 84 97 93 89 101
82 83 78 83 87 90 93 99 96 97 96 96 99 100 106 107 112 127 139 136 146 148 146 139 138 140 143 145 149 152 153 158 161 166 168 173 177 180 185 187 193 197 201 204 209 214 218 221 227 233 241 245 250 257 264 271 277 283 289 295 304 310 318 328 337 347 354 362 369 381 387 392 392 399 410 422 431 441 446 456 462 478 489 501 518 534 554 568 581 599 623 638 656 673 694 711 738 800 826 848 867 888 903 939 988 1035 1069 1113 1153 1192 1252 1304 1343 1385 1432 1486 1537 1589 1645 1704 1756 1815 1879 1935 1997 2059 2120 2196 2268 2338 2399 2445 2414 2363 2301 2245 2169 2074 2032 1972 1897 1844 1778 1716 1660 1594 1527 1466 1406 1359 1307 1272 1242 1194 1151 1116 1087 1042 1000 957 923 888 853 823 793 766 742 715 684 658 627 611 593 577 568 558 543 527 510 499 487 463 451 442 433 416 398 373 373 373 366 358 350 342 335 328 324 316 307 300 295 287 279 269 262 255 247 239 230 225 217 212 204 196 187 182 175 169 161 153 147 136 129 125 119 114 112 109 104 102 99 96 93 91 93 97 89 89 91 95 108 108 102 111
86 90 86 83 84 88 90 99 95 94 94 96 99 101 108 109 113 126 142 150 152 152 148 140 139 141 144 148 149 153 155 159 162 165 170 173 177 179 184 188 192 196 199 203 210 215 218 222 230 234 240 246 253 257 263 272 280 284 292 299 306 313 321 331 338 346 349 354 357 365 371 382 392 402 412 421 433 442 449 461 468 478 489 501 514 529 544 558 561 570 597 615 642 668 685 701 721 785 811 835 860 875 885 920 977 1013 1041 1076 1125 1181 1227 1280 1327 1380 1435 1492 1547 1599 1656 1718 1776 1843 1891 1947 2005 2081 2141 2203 2267 2336 2379 2406 2395 2351 2298 2237 2149 2056 2005 1946 1886 1820 1765 1698 1638 1590 1538 1470 1415 1376 1334 1288 1236 1191 1153 1112 1078 1041 997 953 935 913 883 847 816 779 748 712 679 655 634 615 595 574 563 554 540 527 513 500 485 461 447 438 429 417 401 385 365 353 341 337 329 333 333 322 314 308 299 294 292 288 278 268 262 252 244 236 231 226 217 207 203 196 185 181 174 168 163 157 148 142 132 123 117 114 110 106 101 99 95 94 93 96 101 105 98 103 105 109 115 115 117 124
86 88 89 89 87 87 87 90 92 96 98 98 99 101 107 109 112 121 133 143 149 155 145 139 138 141 145 147 150 155 158 161 164 168 172 173 177 181 184 188 194 198 201 205 209 215 220 225 230 235 242 247 253 259 263 270 279 285 293 299 305 315 319 324 330 335 340 349 357 364 372 380 388 400 409 413 418 426 437 449 457 464 485 495 514 529 544 558 558 576 589 607 631 656 683 699 720 757 819 837 862 886 907 940 957 990 1051 1112 1164 1203 1233 1283 1338 1388 1446 1510 1565 1617 1671 1722 1777 1832 1884 1952 2010 2069 2120 2175 2236 2307 2353 2364 2327 2296 2258 2206 2130 2037 1986 1938 1872 1818 1767 1716 1660 1601 1548 1496 1445 1404 1356 1307 1253 1213 1165 1120 1083 1047 1011 987 955 914 877 836 807 771 739 710 673 652 632 612 593 574 559 544 528 519 512 499 486 458 446 432 422 411 404 392 380 368 352 345 329 320 327 318 309 298 294 287 285 280 273 266 259 247 241 234 227 221 216 206 201 194 187 182 177 171 162 157 150 143 134 128 123 114 108 104 102 99 97 95 94 99 113 117 115 118 125 124 126 126 127 134
86 85 88 89 91 93 93 93 96 98 98 101 101 103 103 109 112 120 126 138 149 152 145 137 138 142 145 148 150 153 158 161 164 167 172 174 179 183 187 191 198 200 203 209 213 216 221 227 230 237 243 247 255 259 264 272 280 286 291 297 304 309 313 320 325 335 343 350 359 366 370 379 383 393 403 412 423 434 445 459 472 478 486 501 509 522 532 540 558 576 589 610 621 637 659 678 697 747 807 830 869 903 933 970 1009 1048 1083 1122 1165 1211 1248 1291 1344 1395 1444 1495 1546 1593 1641 1695 1744 1805 1862 1917 1979 2033 2085 2148 2201 2260 2299 2320 2245 2222 2192 2164 2131 2076 2023 1981 1925 1872 1809 1766 1674 1636 1577 1528 1484 1434 1389 1328 1283 1236 1186 1139 1093 1056 1023 975 928 891 848 811 778 758 733 699 667 648 630 609 586 570 552 539 522 507 503 494 479 453 441 423 413 403 398 388 380 372 360 348 334 318 305 310 305 296 289 281 275 270 266 261 253 242 236 230 223 219 210 206 195 190 185 180 174 166 160 150 149 140 134 131 123 119 117 110 102 98 94 99 102 115 131 129 133 134 147 161 145 137 142 144
85 84 85 91 93 96 95 98 99 99 100 104 104 106 106 112 114 117 124 132 140 144 143 135 136 140 145 148 153 155 158 161 164 167 171 176 180 182 187 192 198 201 203 210 214 217 220 228 231 239 244 248 254 258 264 271 277 281 287 296 301 306 314 325 331 336 344 351 358 367 372 380 389 403 415 420 429 441 447 457 471 482 495 507 519 534 544 563 576 586 594 610 621 637 664 680 703 735 799 836 867 906 943 973 1006 1040 1071 1115 1157 1188 1238 1288 1334 1377 1426 1477 1528 1582 1630 1682 1727 1785 1837 1886 1934 1984 2052 2112 2157 2200 2244 2253 2203 2156 2114 2097 2075 2047 2001 1956 1908 1858 1810 1760 1704 1651 1595 1532 1495 1444 1395 1348 1302 1250 1193 1150 1097 1048 1002 961 927 896 861 819 787 755 723 699 673 646 626 609 587 568 552 535 518 501 488 482 474 460 435 423 408 397 390 382 372 366 354 340 332 323 304 292 291 293 291 283 275 263 259 253 248 243 238 229 221 213 208 201 192 187 184 177 172 163 159 151 145 138 133 128 123 118 115 109 101 99 98 102 108 123 136 133 144 154 161 179 177 156 157 158
85 86 90 93 93 96 95 100 98 100 99 102 106 107 107 117 117 118 122 126 132 139 139 134 134 139 146 149 155 155 160 161 164 168 173 178 181 184 189 192 197 201 206 210 215 220 222 226 232 238 243 248 252 259 264 269 276 282 290 301 306 312 320 326 333 335 340 348 355 359 364 370 379 394 406 412 421 431 444 450 462 474 487 496 508 519 530 542 557 574 596 617 632 645 664 680 703 735 813 850 877 911 931 953 981 1015 1060 1105 1150 1195 1247 1286 1334 1372 1417 1468 1523 1565 1611 1653 1702 1751 1800 1845 1897 1960 2016 2066 2107 2146 2172 2184 2157 2106 2043 2018 2005 1987 1965 1915 1861 1817 1778 1729 1688 1634 1584 1532 1480 1421 1374 1325 1277 1229 1184 1139 1091 1046 1011 972 935 905 871 831 804 774 736 707 679 656 636 611 589 568 548 530 513 499 479 471 465 455 431 420 408 395 386 376 369 360 347 338 330 323 311 301 288 280 282 278 274 261 252 247 240 235 233 230 220 214 205 199 191 186 181 172 167 161 158 152 145 139 131 126 121 118 113 107 104 102 99 100 111 126 134 139 153 175 199 211 196 169 176 185
87 87 90 92 93 93 98 101 98 99 100 102 107 109 109 118 118 121 121 124 131 133 132 134 134 141 145 146 149 154 158 161 163 167 171 177 180 183 186 191 196 200 205 209 213 219 224 230 233 237 243 247 251 259 264 268 274 284 294 301 308 309 315 323 330 333 337 342 347 353 361 369 379 388 398 409 420 429 436 453 464 476 479 494 508 523 541 557 571 586 599 616 638 657 683 708 725 754 781 850 877 890 911 940 983 1027 1066 1108 1151 1191 1233 1280 1317 1358 1394 1447 1498 1541 1588 1626 1665 1708 1764 1818 1872 1926 1972 2019 2060 2094 2106 2114 2092 2059 2001 1960 1944 1940 1920 1873 1826 1776 1729 1683 1644 1599 1557 1514 1462 1415 1372 1321 1274 1220 1166 1121 1078 1033 998 958 921 888 859 827 801 779 750 727 693 670 654 629 604 569 548 527 514 495 476 465 455 449 434 417 405 395 388 378 366 356 348 339 327 317 302 296 296 282 267 267 264 254 243 233 232 227 224 224 213 208 202 197 192 186 180 173 164 161 156 150 143 137 130 123 117 113 113 106 103 101 104 105 116 132 142 146 169 194 217 232 219 181 185 197
87 87 88 88 91 92 96 96 100 101 101 105 109 110 111 119 118 121 123 125 129 129 130 134 137 139 142 146 148 152 155 159 164 167 170 174 179 182 187 191 196 204 208 212 214 220 225 230 235 240 244 249 253 261 267 270 273 279 289 294 299 303 310 315 321 328 333 339 346 355 366 371 382 391 402 409 416 422 437 452 463 475 483 498 509 528 544 554 564 578 597 613 640 663 684 702 721 751 779 838 867 890 911 940 984 1015 1048 1090 1131 1174 1224 1271 1305 1339 1377 1414 1460 1499 1538 1584 1636 1685 1739 1790 1840 1886 1934 1973 2003 2032 2040 2050 2018 2008 1965 1914 1891 1885 1857 1833 1789 1745 1697 1643 1597 1559 1519 1473 1420 1384 1352 1310 1268 1218 1174 1134 1080 1028 980 939 904 871 834 812 795 775 747 721 697 678 658 635 603 571 551 534 520 506 487 474 454 441 429 418 402 391 384 380 367 351 342 333 321 309 298 290 286 282 271 253 243 235 227 220 215 218 217 215 209 202 196 190 185 180 174 169 164 160 157 152 147 137 131 124 117 112 108 105 101 100 109 116 125 132 146 145 154 181 216 240 235 205 196 203
86 87 89 87 90 92 95 96 101 101 101 103 106 109 112 120 119 122 124 125 126 128 132 134 136 138 140 144 147 151 155 159 166 170 172 174 179 184 188 192 196 204 208 213 217 222 225 230 236 240 244 249 256 259 266 271 277 282 287 293 297 304 310 315 320 328 333 338 344 355 364 372 382 389 398 403 411 423 435 449 463 469 481 494 507 519 529 540 557 580 603 620 636 654 676 693 715 737 763 823 851 888 921 953 984 1015 1048 1090 1132 1160 1200 1236 1262 1293 1341 1377 1416 1459 1501 1556 1608 1656 1706 1755 1806 1851 1890 1920 1951 1965 1977 1988 1958 1967 1936 1874 1839 1817 1810 1792 1749 1697 1652 1603 1559 1520 1483 1439 1384 1347 1311 1272 1230 1184 1153 1124 1082 1045 999 953 919 873 828 797 774 749 727 707 688 667 636 613 588 573 556 540 530 516 491 471 452 436 420 412 400 387 376 369 362 347 334 326 314 302 296 284 278 273 267 258 248 242 234 228 213 205 203 202 205 199 195 188 184 179 170 164 161 157 153 150 142 137 132 126 121 113 107 106 101 96 101 114 117 119 132 126 123 152 188 223 245 230 219 217
83 85 87 87 90 93 95 98 100 103 102 105 106 109 111 115 118 121 122 122 123 126 130 135 137 138 139 143 148 151 155 158 165 168 171 176 179 184 188 193 197 203 207 211 216 220 224 232 236 239 244 250 256 261 267 272 276 281 286 292 300 305 310 318 326 335 340 343 349 355 361 369 377 385 392 405 416 423 433 448 458 465 473 485 499 511 521 535 556 574 593 611 629 645 664 681 705 725 752 808 850 888 909 930 953 985 1036 1091 1132 1160 1200 1194 1227 1265 1309 1351 1383 1428 1476 1527 1574 1623 1674 1723 1769 1811 1839 1866 1888 1899 1911 1915 1895 1900 1893 1839 1795 1767 1746 1732 1708 1663 1615 1576 1525 1482 1442 1411 1367 1312 1266 1237 1196 1156 1106 1074 1042 1008 976 957 929 888 841 802 772 745 723 695 671 652 625 608 591 579 565 551 535 522 502 481 453 433 421 397 393 384 370 356 352 343 331 321 310 303 294 282 273 264 257 252 251 248 242 237 226 214 205 193 195 193 189 185 181 174 168 160 158 153 150 143 138 133 133 127 122 116 108 103 103 97 95 106 109 106 116 109 99 131 185 219 249 258 243 235
85 84 88 89 92 92 95 98 100 104 104 105 107 109 110 113 117 118 120 120 124 126 130 132 135 138 140 143 149 151 155 160 162 167 173 175 181 183 190 195 200 207 209 214 218 220 226 231 237 240 246 249 258 266 269 274 277 280 285 294 302 307 316 323 329 335 340 347 351 356 362 369 379 388 397 409 416 427 439 447 451 460 470 483 493 510 523 537 549 566 582 595 614 634 653 677 704 731 757 805 843 866 879 898 935 987 1035 1075 1107 1137 1165 1194 1227 1265 1287 1317 1357 1404 1448 1499 1548 1596 1646 1695 1730 1761 1785 1808 1830 1841 1844 1845 1821 1828 1843 1816 1763 1727 1699 1676 1652 1619 1579 1545 1502 1446 1403 1372 1336 1294 1245 1204 1166 1123 1087 1050 1011 977 937 923 914 887 853 812 783 748 722 701 670 653 628 604 587 572 554 541 529 514 498 479 451 424 413 388 382 373 364 351 344 335 331 321 309 299 293 280 272 264 250 245 245 245 239 234 228 223 214 197 183 188 187 178 174 172 166 162 156 150 147 145 136 128 127 124 119 113 108 103 101 97 92 95 101 93 96 88 107 152 191 207 220 231 229 209
81 85 85 88 90 89 92 96 99 102 105 105 105 108 110 113 111 114 118 120 124 126 129 130 134 138 141 144 148 152 154 160 164 169 172 178 182 186 189 196 198 207 211 219 222 223 230 231 238 243 248 252 259 266 272 277 280 285 290 296 304 309 319 323 329 333 338 347 353 360 365 372 381 391 400 411 423 431 442 461 469 479 490 496 500 510 524 535 546 560 567 584 612 639 662 697 726 743 758 771 822 847 874 906 951 988 1017 1046 1078 1098 1125 1160 1201 1243 1287 1317 1357 1380 1425 1474 1521 1580 1630 1661 1687 1707 1727 1750 1770 1780 1784 1786 1759 1776 1794 1768 1733 1689 1653 1616 1590 1562 1533 1500 1466 1420 1381 1340 1295 1262 1221 1176 1139 1102 1069 1038 995 961 918 890 877 865 843 815 785 751 714 689 673 656 630 590 574 558 536 517 506 493 479 457 436 418 408 383 374 366 358 347 334 329 325 317 308 303 293 280 272 264 248 242 237 238 234 226 223 219 210 200 183 177 179 175 171 169 163 157 150 147 142 141 135 131 124 121 117 110 107 103 98 94 92 91 92 90 87 83 106 135 153 159 160 170 174 155
77 81 81 87 89 91 93 94 97 99 103 108 105 108 111 108 117 120 121 123 123 126 128 130 133 136 141 144 147 152 155 161 162 168 171 178 185 187 190 196 200 204 209 216 220 225 231 233 240 242 249 255 261 265 272 278 282 287 293 298 302 308 316 321 327 332 337 345 350 358 363 371 379 394 403 412 423 434 447 459 470 483 493 504 509 522 537 548 543 570 593 606 626 646 671 706 724 738 755 765 823 854 880 911 937 959 984 1021 1049 1075 1105 1146 1188 1221 1253 1292 1328 1380 1425 1474 1521 1549 1579 1603 1633 1653 1675 1695 1712 1722 1721 1719 1701 1717 1727 1715 1686 1659 1620 1578 1544 1495 1475 1453 1428 1395 1360 1311 1265 1233 1195 1158 1118 1085 1061 1022 994 960 919 879 854 834 814 795 769 743 720 692 665 642 621 582 563 547 526 506 490 475 458 437 422 411 404 392 368 358 353 345 336 331 319 309 300 295 288 281 273 260 248 240 232 227 225 217 216 214 202 195 183 171 174 170 166 163 159 149 139 137 137 136 132 129 124 112 109 105 105 100 98 92 89 91 87 86 86 80 84 102 111 115 116 125 120 117
87 85 80 84 89 92 92 91 99 103 100 102 103 107 106 107 118 120 123 123 123 126 128 132 135 138 140 143 146 150 154 160 161 165 170 176 183 189 192 197 201 204 210 216 218 223 228 232 237 241 250 260 265 267 272 278 284 289 292 297 302 309 317 321 326 331 337 343 350 356 364 372 376 385 395 402 414 431 444 454 466 481 494 506 520 530 540 554 558 582 600 619 641 656 671 694 708 725 748 759 821 845 857 884 912 938 980 1009 1032 1063 1095 1132 1168 1195 1219 1266 1311 1357 1401 1446 1495 1549 1579 1603 1577 1597 1622 1645 1658 1668 1662 1649 1640 1662 1665 1654 1631 1611 1579 1539 1509 1461 1428 1400 1372 1350 1323 1280 1243 1200 1164 1136 1099 1067 1037 1000 978 951 916 879 860 825 796 771 747 728 708 685 667 642 620 597 576 551 527 500 477 468 453 438 422 406 399 385 361 351 342 341 335 326 312 302 292 287 285 274 270 258 245 237 228 218 214 214 212 207 200 190 182 168 165 165 162 158 159 148 137 130 129 127 128 126 119 104 102 99 97 93 91 88 85 84 78 76 73 73 68 76 86 96 97 90 82 82
91 92 89 88 84 86 87 91 95 103 105 101 103 104 110 113 116 118 121 121 125 124 129 132 136 137 141 144 147 151 155 159 165 168 173 178 181 186 190 196 202 207 212 215 218 224 229 233 237 242 248 257 263 268 272 276 281 286 291 298 303 308 315 320 324 330 333 339 347 356 363 370 378 385 394 401 414 426 437 450 467 483 492 505 521 535 546 560 572 584 609 630 644 654 666 681 692 713 732 759 795 810 825 857 898 936 966 987 1013 1050 1079 1115 1136 1155 1192 1245 1288 1328 1368 1422 1473 1506 1529 1550 1577 1597 1622 1588 1601 1609 1604 1590 1590 1608 1604 1597 1581 1558 1536 1509 1471 1435 1397 1356 1324 1299 1282 1256 1220 1179 1144 1101 1071 1043 1018 983 951 925 899 870 845 821 795 768 733 705 685 668 652 633 612 595 578 550 526 503 484 466 452 440 427 408 393 383 356 346 335 328 333 324 310 301 288 281 278 275 266 253 245 236 230 219 208 204 206 197 194 187 182 170 158 158 155 150 145 142 133 121 118 117 117 122 117 107 101 93 86 82 86 84 82 80 71 66 62 67 63 62 71 79 75 66 60 57
88 90 93 93 94 94 95 97 95 99 107 107 108 108 110 112 117 117 120 121 123 125 128 131 135 137 141 143 147 152 155 159 167 170 174 175 177 184 189 194 201 205 209 215 221 226 230 233 240 246 250 257 261 266 273 278 280 286 291 298 301 309 318 316 321 325 329 337 344 354 359 369 378 386 395 404 412 423 437 450 463 479 491 504 520 536 553 567 586 597 613 625 638 650 662 676 687 704 724 752 761 781 808 842 884 906 924 950 990 1024 1053 1079 1110 1138 1182 1222 1261 1293 1350 1403 1434 1452 1477 1503 1527 1549 1567 1588 1601 1609 1543 1541 1530 1550 1545 1537 1523 1507 1489 1465 1430 1399 1376 1340 1286 1255 1230 1212 1184 1152 1121 1086 1039 1005 983 951 925 898 876 854 829 802 778 751 721 696 677 657 638 619 602 588 570 547 527 508 492 471 452 437 425 415 393 380 361 351 332 319 318 319 310 302 289 279 270 265 261 254 247 237 227 221 211 199 196 186 181 185 181 172 157 153 153 147 140 133 126 118 117 111 106 112 115 107 100 89 82 77 77 81 78 72 63 59 55 62 62 55 54 55 57 57 47 50
92 93 90 90 95 95 94 98 97 99 102 107 110 110 109 112 115 119 119 120 121 126 128 129 133 136 139 143 146 150 153 158 166 169 171 174 181 184 188 193 199 204 209 213 220 224 230 235 239 245 248 255 261 267 272 277 278 285 290 296 303 308 311 313 318 323 325 333 341 354 360 368 378 388 396 404 414 422 433 442 456 471 488 503 514 529 553 566 581 602 616 624 633 644 658 665 676 693 703 713 726 764 790 826 857 880 912 940 973 1003 1034 1063 1091 1133 1168 1193 1232 1284 1334 1358 1380 1401 1427 1451 1472 1496 1515 1530 1544 1547 1543 1541 1530 1496 1487 1479 1477 1458 1441 1419 1387 1357 1333 1311 1283 1242 1196 1171 1143 1121 1096 1062 1014 973 949 929 900 865 856 835 811 794 768 740 712 687 668 650 638 619 601 583 560 543 519 495 482 469 450 436 424 407 393 378 365 349 333 318 305 306 302 297 290 279 266 260 255 251 243 237 229 222 212 203 196 189 178 175 179 172 158 144 147 144 139 133 120 116 116 109 102 101 105 102 98 91 82 74 73 74 73 65 59 57 54 55 56 49 48 45 45 40 38 51
94 97 96 96 93 87 85 93 92 87 87 98 108 111 113 114 116 119 119 120 122 126 128 130 133 136 139 142 145 148 152 157 161 164 169 173 179 186 189 193 198 203 209 214 220 224 229 235 238 242 250 255 259 263 267 273 277 286 290 294 299 303 308 311 314 320 328 336 345 351 358 367 375 383 394 402 413 420 429 440 453 479 492 503 514 526 546 563 581 603 612 616 624 637 645 655 669 679 679 686 706 757 797 824 852 889 908 926 952 980 1018 1048 1075 1104 1126 1167 1223 1275 1297 1312 1330 1358 1383 1404 1423 1445 1462 1478 1490 1495 1483 1486 1482 1496 1487 1479 1477 1410 1386 1381 1351 1314 1278 1256 1247 1230 1185 1137 1105 1088 1063 1028 983 937 905 897 876 840 827 814 786 772 759 736 705 676 650 638 631 617 599 580 556 536 514 487 471 460 452 446 426 402 391 381 365 344 330 314 304 296 291 287 280 273 264 255 250 250 242 231 224 217 211 205 195 186 180 169 166 164 158 147 140 143 137 133 127 116 111 104 101 95 94 91 90 88 80 72 68 65 65 63 58 56 54 53 48 45 41 40 40 36 42 52
100 98 103 104 101 97 98 102 101 100 98 96 102 110 113 116 117 118 116 119 122 125 127 129 131 135 137 142 144 149 153 155 157 163 170 174 181 186 189 190 198 205 209 213 216 222 226 232 237 242 250 252 252 259 266 276 279 284 288 292 295 301 306 309 314 321 331 338 345 352 359 366 374 382 396 403 414 423 434 445 457 484 492 500 511 523 542 557 573 589 600 606 617 621 631 636 639 642 663 694 726 772 794 814 841 864 885 914 941 973 1001 1026 1047 1075 1109 1161 1218 1244 1249 1264 1293 1318 1337 1353 1374 1394 1412 1425 1433 1437 1429 1437 1432 1438 1430 1423 1425 1410 1386 1381 1308 1270 1236 1211 1191 1184 1164 1121 1074 1056 1034 998 961 924 885 859 847 822 801 788 768 746 737 718 689 660 636 619 616 607 591 573 556 537 510 474 461 446 443 440 418 401 385 371 360 337 324 310 303 301 291 279 269 262 259 251 243 238 233 226 217 212 207 197 190 180 175 166 156 153 152 147 133 135 131 127 124 118 113 109 102 91 89 85 82 80 76 70 67 62 60 60 57 54 51 47 46 41 39 37 35 37 45 43
102 113 116 119 112 108 109 111 110 110 109 108 105 104 106 112 113 113 116 117 121 125 127 130 134 136 138 142 145 148 149 155 159 166 170 174 180 186 189 192 200 204 207 210 216 221 223 229 235 241 250 252 251 259 267 274 278 282 284 289 293 299 304 310 315 319 327 340 350 359 364 368 376 382 393 403 411 420 433 446 458 475 484 497 510 525 542 557 568 580 587 595 593 596 601 609 632 665 695 713 729 751 768 800 828 849 872 900 927 949 976 1000 1021 1048 1090 1150 1186 1193 1202 1227 1261 1272 1289 1303 1325 1345 1361 1374 1381 1380 1373 1384 1377 1380 1376 1367 1366 1355 1331 1331 1308 1270 1236 1180 1145 1128 1122 1108 1058 1022 999 965 928 901 873 841 821 801 781 766 750 729 711 698 679 647 625 605 597 591 574 560 544 527 501 464 457 439 432 427 411 396 384 367 357 340 328 315 302 290 284 276 265 257 251 249 242 234 228 218 214 208 199 191 185 176 169 162 159 147 138 137 129 132 129 126 122 118 113 106 98 88 85 81 77 76 71 65 62 60 59 56 53 52 46 43 43 40 38 35 32 33 37 39
118 138 134 142 135 122 116 119 123 124 121 118 116 108 104 111 110 112 117 119 122 125 127 129 132 136 138 141 145 147 149 155 168 170 172 174 179 185 189 192 198 201 207 208 215 220 223 229 237 242 248 251 255 262 265 268 274 280 281 283 288 296 301 307 312 317 326 336 345 351 356 362 368 376 386 395 404 418 437 450 457 469 482 500 513 523 533 544 556 563 570 568 573 583 589 623 651 673 689 696 706 712 767 790 813 835 856 884 907 927 949 972 993 1026 1079 1126 1141 1145 1157 1184 1213 1220 1237 1256 1280 1300 1315 1325 1332 1327 1325 1332 1324 1329 1318 1310 1320 1306 1282 1279 1267 1226 1193 1180 1145 1128 1071 1070 1045 998 963 950 915 879 846 825 806 776 755 741 726 710 694 681 663 638 615 596 579 569 556 546 533 519 500 464 450 432 429 420 404 391 380 365 351 341 327 317 307 294 279 273 265 256 240 237 239 232 223 219 210 203 196 192 190 179 164 154 150 144 136 132 124 124 123 125 120 115 110 102 93 88 83 78 75 72 67 62 61 57 55 52 49 50 46 40 39 36 35 33 33 30 27 34
152 166 160 173 174 150 129 134 140 134 136 134 131 122 111 111 109 112 117 119 122 124 126 129 131 134 136 140 143 149 151 155 162 166 170 172 178 184 188 190 194 200 206 211 217 219 224 228 235 239 244 246 250 257 263 267 271 274 276 279 283 290 295 300 308 314 323 330 334 341 348 358 366 373 379 390 400 418 439 447 453 467 486 502 508 515 526 535 543 546 538 541 562 577 614 638 647 658 663 670 683 706 759 781 802 814 840 869 887 906 925 943 969 1013 1068 1090 1089 1098 1116 1150 1161 1168 1188 1215 1240 1255 1269 1283 1284 1272 1273 1279 1274 1271 1261 1255 1265 1259 1237 1222 1223 1189 1154 1146 1125 1090 1071 1070 1045 989 945 916 900 865 831 808 784 762 731 715 700 685 674 663 643 624 605 585 570 558 540 528 519 508 487 461 446 433 419 411 397 384 370 354 344 334 319 312 303 288 282 272 262 255 245 226 231 228 221 216 214 203 192 187 180 175 160 148 145 143 136 133 124 118 120 119 116 113 105 102 93 85 79 77 73 68 63 59 57 53 53 50 47 44 43 37 37 34 33 32 31 27 27 30
161 182 190 202 203 171 144 147 149 145 145 148 146 133 112 110 110 112 116 118 121 125 127 128 131 133 137 140 146 149 150 152 156 161 164 170 180 183 187 191 195 200 206 210 216 219 223 227 230 235 242 246 248 254 260 262 268 273 275 279 281 288 293 300 308 313 322 326 335 342 347 356 363 370 377 387 396 409 427 439 448 459 477 491 497 507 517 525 527 524 519 556 580 586 602 610 620 632 644 666 689 713 745 766 778 793 823 843 859 876 892 917 957 1004 1039 1042 1042 1053 1082 1108 1111 1120 1151 1178 1207 1212 1229 1247 1248 1217 1221 1226 1223 1217 1203 1202 1219 1214 1192 1170 1169 1153 1112 1102 1091 1075 1037 1027 1023 989 945 916 870 843 816 786 760 740 711 693 673 663 652 644 627 604 585 566 553 543 529 517 501 492 474 456 443 428 417 399 383 376 368 354 338 326 307 301 298 287 275 272 262 251 244 230 216 218 216 212 206 201 196 184 173 163 153 147 143 137 133 128 121 114 112 114 113 110 103 99 95 88 80 75 71 67 64 59 55 51 49 45 43 41 37 32 32 31 30 28 27 27 26 21
163 196 211 216 214 189 164 161 158 156 155 154 154 144 129 122 116 114 115 118 120 122 125 126 131 133 136 139 143 146 148 151 156 159 163 169 176 183 187 192 196 200 202 207 213 217 220 227 230 232 236 242 249 253 256 258 262 267 273 278 283 289 294 300 308 313 319 327 332 343 349 356 359 366 373 382 396 411 425 433 441 458 475 485 493 496 505 507 516 515 517 548 547 554 571 584 606 630 646 667 684 698 738 750 758 785 800 810 818 834 864 901 946 978 992 997 999 1015 1040 1060 1066 1091 1128 1150 1171 1177 1193 1217 1202 1169 1174 1172 1166 1153 1150 1153 1170 1168 1151 1123 1116 1111 1083 1052 1042 1041 1016 989 990 978 933 898 870 843 816 765 738 715 694 673 655 641 633 621 611 593 570 554 545 531 519 507 492 484 467 453 434 419 410 386 370 367 362 351 333 320 299 293 288 284 274 269 264 250 238 232 219 203 202 207 202 195 194 184 174 162 149 144 138 130 126 121 113 110 107 107 110 107 101 96 91 87 79 75 71 67 62 56 52 49 46 44 41 38 34 30 29 30 30 26 24 23 22 17
159 192 215 215 194 172 156 155 157 158 159 157 150 139 133 132 125 115 114 117 119 121 126 127 132 132 134 138 139 143 146 151 155 158 163 170 176 183 186 191 197 200 205 206 209 213 217 225 230 233 234 239 243 247 255 258 259 263 273 280 285 290 297 301 304 311 317 322 328 336 346 355 361 366 374 384 396 410 419 425 445 467 475 480 484 486 491 494 499 494 515 527 539 561 577 593 607 619 637 650 672 685 701 728 741 759 775 782 792 822 859 894 925 941 937 946 950 975 999 1022 1029 1055 1093 1119 1134 1143 1164 1179 1156 1124 1129 1128 1128 1103 1097 1111 1120 1120 1110 1085 1069 1065 1045 1014 991 988 985 960 938 938 918 880 843 812 789 765 738 715 694 654 634 621 611 602 589 577 564 547 535 521 508 493 484 474 462 444 422 407 391 376 359 355 352 342 325 312 309 286 276 272 266 262 258 249 238 227 220 211 196 192 197 191 189 183 175 160 145 142 136 130 121 115 110 102 100 101 105 104 98 96 90 80 76 73 68 64 61 56 52 48 44 41 38 37 34 29 28 26 25 25 23 20 18 14
150 185 189 183 169 152 144 148 154 153 157 159 151 142 140 134 129 118 114 118 119 122 125 126 130 133 134 137 139 143 145 149 154 158 163 173 175 180 187 190 197 199 202 203 209 215 221 225 228 230 232 238 241 247 249 254 259 265 273 278 283 291 294 296 301 308 312 318 327 334 344 352 359 366 376 384 392 406 414 429 452 464 470 472 475 479 480 481 478 484 502 515 543 562 571 582 594 606 623 640 655 671 687 711 727 737 750 759 785 820 855 874 885 891 892 900 904 920 968 992 994 1025 1060 1081 1092 1110 1140 1132 1098 1077 1092 1088 1087 1060 1050 1069 1075 1076 1064 1044 1030 1020 1001 985 949 936 938 918 895 891 883 865 820 785 754 741 725 702 679 654 634 621 590 581 572 563 551 538 528 516 497 481 472 458 447 439 417 399 386 373 360 354 340 329 315 301 299 280 269 263 257 254 250 245 238 228 216 208 199 185 189 188 184 177 171 156 146 137 129 127 119 114 109 100 95 95 99 95 91 86 83 77 74 70 66 62 59 55 50 46 43 40 34 31 32 28 26 24 23 23 21 16 15 13
146 166 168 159 148 142 139 141 144 148 155 159 152 150 148 138 137 130 123 120 120 123 124 128 129 132 133 138 141 144 145 149 154 158 161 168 175 178 184 187 193 198 200 205 211 217 220 223 226 227 230 236 242 247 250 255 258 262 271 277 282 288 290 294 299 306 315 323 327 334 341 350 356 364 374 381 391 400 413 430 444 453 460 465 468 470 469 471 467 479 499 522 541 554 562 573 588 599 621 631 642 652 676 705 715 718 731 751 781 814 834 845 854 849 853 857 864 902 952 952 961 999 1023 1038 1054 1074 1099 1080 1047 1041 1055 1056 1046 1028 1014 1030 1032 1028 1019 1003 991 978 955 941 913 890 893 878 856 848 838 834 811 770 732 716 706 688 664 643 618 603 590 581 572 543 535 526 518 511 496 476 463 450 436 424 413 392 384 373 360 347 336 325 318 308 297 273 260 254 248 246 240 238 230 224 217 210 196 177 177 179 177 172 166 155 145 131 126 122 117 113 107 102 93 91 91 90 85 83 80 76 71 68 63 59 58 52 47 44 41 38 32 28 29 28 24 21 20 17 17 15 11 10
130 144 152 147 138 130 129 134 137 146 152 158 156 154 152 146 143 139 132 127 124 121 123 126 128 131 133 136 139 142 145 150 155 158 161 168 173 175 179 187 190 196 198 203 206 213 218 219 223 227 232 234 239 243 245 248 254 260 263 273 277 284 287 293 298 308 317 320 326 333 340 348 350 357 367 378 388 397 414 427 436 445 454 456 456 449 453 454 469 483 500 519 536 539 545 562 578 584 606 613 620 645 665 683 695 707 722 748 774 798 813 828 829 822 824 814 844 883 910 919 931 961 974 1004 1014 1048 1060 1031 1005 1012 1017 1027 1012 991 978 989 985 980 973 966 957 933 920 897 875 857 853 842 821 807 803 799 791 757 714 694 688 673 656 630 608 593 581 567 554 543 535 526 504 500 491 482 456 440 430 418 405 392 380 369 357 347 335 323 313 307 299 275 263 250 240 233 230 228 224 216 211 205 196 182 167 167 166 160 157 150 140 128 122 119 116 111 103 98 92 88 86 84 81 78 78 74 69 66 60 54 53 49 47 45 37 35 30 26 28 26 22 19 18 14 12 14 10 5
120 132 138 137 127 122 127 135 138 147 157 159 153 152 149 147 147 134 129 125 125 127 124 128 128 129 132 137 142 142 144 148 152 155 158 159 166 174 179 183 189 195 196 200 203 207 211 215 220 224 229 234 238 241 244 245 251 259 264 270 275 280 286 291 297 301 308 313 321 328 335 338 343 349 363 369 376 388 410 423 432 442 450 446 435 434 441 447 464 477 501 515 526 522 535 553 566 572 585 588 600 627 650 672 682 701 721 741 760 777 790 796 796 793 793 791 821 839 869 885 905 924 949 984 973 1000 1013 994 975 976 981 987 972 952 945 950 941 938 932 931 932 909 881 853 840 826 815 810 803 785 764 766 768 750 702 673 665 648 644 624 602 583 566 559 551 534 517 507 504 500 491 464 448 436 424 416 405 392 379 368 357 345 333 321 313 303 294 283 263 253 242 234 222 218 218 212 206 199 195 192 172 158 152 147 145 142 134 126 120 115 110 108 103 98 91 84 81 80 77 75 70 68 65 62 58 55 51 44 44 44 38 36 30 24 22 20 18 18 15 12 10 10 6 3
116 135 134 124 116 114 120 126 133 145 154 159 156 155 141 141 143 132 126 124 123 130 133 135 142 146 149 160 159 149 144 148 150 152 156 158 162 169 177 180 184 193 196 199 203 204 206 211 216 220 224 230 233 238 242 245 250 255 264 268 272 279 283 286 290 297 302 304 312 323 330 332 338 346 353 365 373 382 405 415 426 436 441 436 421 430 436 448 458 466 477 501 513 510 524 540 551 560 569 578 597 615 641 650 679 695 716 724 737 751 770 771 764 766 766 769 790 816 843 858 883 896 937 943 939 965 966 963 950 944 945 942 932 905 900 902 892 895 893 896 902 886 854 823 800 787 781 777 774 760 736 736 739 719 689 663 639 624 621 612 597 581 564 539 536 531 511 492 489 484 473 464 448 436 420 407 400 391 379 367 354 343 333 322 313 302 291 280 262 252 242 233 222 210 203 201 201 194 188 187 174 166 154 143 138 135 129 123 119 112 106 103 99 96 89 82 79 78 75 71 67 64 62 57 55 53 51 44 40 39 35 30 28 20 20 17 16 13 11 11 8 7 0 -9999
106 122 119 108 107 110 113 121 130 143 154 160 161 153 143 141 140 135 130 128 129 138 140 140 149 163 174 184 185 181 155 148 147 151 153 156 161 164 169 179 182 186 191 197 202 200 203 207 212 216 220 226 231 236 240 248 250 256 263 266 269 275 276 280 288 293 297 302 309 317 323 332 339 343 347 357 363 379 401 412 416 426 430 422 420 431 434 442 449 446 469 491 500 499 513 527 535 549 559 577 590 610 632 642 674 685 693 698 710 731 749 743 741 739 742 758 777 805 818 830 855 880 912 904 906 936 926 928 916 912 910 901 883 860 855 857 846 847 855 863 875 861 831 804 775 750 751 739 739 732 712 709 710 699 678 659 623 605 602 595 579 573 564 538 519 516 504 489 476 471 464 453 439 430 420 407 400 382 374 360 351 341 328 317 307 297 286 276 259 249 240 234 223 215 204 195 190 188 183 177 170 163 152 144 139 134 130 123 117 112 103 100 95 90 84 79 74 71 71 66 62 58 59 55 53 49 49 50 42 37 34 30 24 19 18 13 13 12 10 9 8 -9999 -9999 -9999
97 101 99 99 101 110 116 123 132 145 151 158 165 158 153 148 142 137 132 139 143 152 162 157 166 185 195 209 216 202 164 147 146 150 154 157 160 163 170 175 181 182 187 193 198 199 203 206 208 213 217 225 231 236 243 247 253 258 262 263 268 272 274 276 281 286 292 299 310 315 321 328 334 337 342 346 354 368 386 403 407 413 418 407 416 424 428 432 436 443 456 473 482 491 506 516 521 529 555 569 579 604 617 628 658 663 671 676 695 719 717 710 703 705 736 745 770 779 789 808 829 857 886 872 878 909 890 890 889 885 881 869 855 825 818 813 805 805 820 829 842 832 805 790 771 734 717 710 697 697 688 688 691 679 664 646 617 588 583 575 563 553 543 525 502 496 490 480 471 457 455 448 438 424 413 404 390 382 374 360 347 334 324 315 304 294 284 274 257 246 238 230 221 212 205 196 188 180 176 166 164 160 149 138 133 132 126 123 114 110 105 100 95 88 84 77 73 67 65 66 63 59 56 53 48 45 48 45 40 35 33 28 21 18 15 11 11 9 7 -1 -9999 -9999 -9999 -9999
96 94 92 94 101 111 116 125 135 142 153 159 165 168 161 150 143 142 139 140 160 167 177 179 179 198 212 224 219 199 166 148 148 151 152 156 159 162 165 172 178 182 186 186 191 200 203 205 206 209 218 226 232 234 240 243 250 256 258 262 267 268 269 268 274 282 293 302 307 312 316 319 328 329 335 338 351 361 371 392 399 400 398 399 406 414 416 419 425 439 454 467 478 490 497 498 507 522 546 558 572 590 596 605 632 643 655 653 661 677 679 685 686 690 713 724 751 746 752 781 801 837 865 846 854 875 851 848 850 853 849 841 827 797 778 774 776 782 792 797 807 804 781 764 754 728 702 694 671 663 659 661 668 665 648 617 598 576 564 559 552 538 530 518 493 481 480 470 461 454 439 434 430 419 408 397 387 376 365 357 347 334 324 312 299 289 278 271 261 242 229 224 218 211 202 195 186 176 168 164 160 154 139 132 129 126 124 120 113 108 105 102 93 88 84 78 73 67 64 60 58 55 54 51 47 46 41 40 39 33 31 27 21 16 13 10 11 9 6 -9999 -9999 -9999 -9999 -9999
95 94 92 99 104 114 119 128 136 144 151 161 175 179 169 159 153 147 148 142 168 177 179 182 180 190 194 194 190 175 156 148 147 150 152 154 157 159 163 166 171 178 184 184 186 195 201 203 205 210 217 224 228 234 239 243 246 251 254 259 259 261 265 269 274 280 290 298 302 309 310 313 319 324 331 339 348 356 365 374 378 378 377 390 394 400 407 420 432 444 456 467 475 482 483 482 498 516 533 543 564 567 581 592 598 617 634 636 631 644 657 672 660 667 688 693 716 721 731 758 768 800 830 824 830 849 823 817 820 824 822 813 804 783 756 743 745 749 755 763 773 781 771 752 730 710 691 673 653 635 624 625 637 645 635 605 584 569 552 543 534 525 513 504 477 467 471 460 447 440 431 422 417 405 395 386 381 371 362 350 339 330 321 312 299 289 273 264 257 243 230 224 215 204 199 191 181 172 165 158 156 152 140 133 128 123 119 116 112 108 102 97 91 87 82 76 73 68 63 58 53 51 50 47 50 46 40 38 37 35 30 25 21 18 12 8 6 4 -9999 -9999 -9999 -9999 -9999 -9999
93 96 94 101 107 115 119 126 138 147 160 182 196 204 190 173 166 161 153 149 152 170 168 168 164 168 172 172 165 152 146 148 149 149 150 153 157 159 162 165 170 174 181 183 182 191 197 205 208 213 218 222 224 232 234 235 239 244 251 252 253 257 262 269 272 280 287 294 296 299 303 308 314 324 331 337 341 349 355 362 362 361 369 378 386 393 406 414 422 436 452 458 462 467 471 486 505 513 510 522 541 553 577 587 588 597 616 616 617 629 643 638 625 649 659 669 693 695 711 735 737 760 788 794 805 818 795 784 790 799 796 787 771 756 733 710 720 714 712 731 740 748 751 734 717 699 679 658 636 618 608 597 609 619 606 591 577 560 542 531 522 513 505 491 466 449 453 453 444 428 417 413 410 398 380 379 372 363 355 349 340 328 318 306 296 286 273 264 257 236 228 220 211 201 193 186 175 168 164 157 149 145 141 137 130 122 118 113 108 107 100 94 89 84 81 75 70 68 64 58 52 49 47 45 45 41 36 32 31 28 23 21 22 21 10 6 2 -9999 -9999 -9999 -9999 -9999 -9999 -9999
95 97 96 100 103 111 122 131 138 152 170 201 228 238 224 200 182 179 170 155 151 164 164 156 157 157 153 153 148 144 144 146 149 151 153 154 157 158 161 165 171 180 175 183 185 191 198 203 207 209 216 221 225 228 230 235 238 241 246 246 252 258 264 267 273 284 287 288 290 297 301 308 315 324 329 333 338 343 348 348 353 358 367 372 380 391 394 398 406 418 429 437 444 461 472 475 492 495 493 505 520 545 567 581 578 577 587 598 605 614 622 608 613 628 638 656 673 661 677 703 703 735 752 762 773 789 762 756 763 776 770 761 745 733 713 682 699 689 681 697 705 709 718 714 700 682 665 646 628 612 593 580 592 595 585 573 561 549 540 528 508 497 495 487 472 451 437 430 424 415 408 400 400 397 384 363 359 357 350 342 333 327 311 297 290 282 270 257 249 236 228 220 209 200 189 185 176 167 161 155 145 141 142 136 129 123 114 108 102 100 94 90 88 84 77 72 69 65 64 60 53 50 46 44 40 38 33 31 28 25 21 18 16 18 11 4 -9999 -9999 -9999 -9999 -9999 -9999 -9999 -9999
92 97 100 99 103 109 120 129 139 163 186 221 261 273 265 246 213 200 187 171 156 158 164 155 152 148 145 146 142 143 145 145 147 149 151 153 155 156 160 163 170 170 173 182 185 188 193 198 205 208 212 216 219 224 227 233 235 239 246 248 251 256 261 269 278 282 283 286 292 295 298 305 312 317 323 330 335 335 337 343 349 359 367 374 378 381 388 401 410 418 433 447 456 460 461 461 468 475 488 500 519 534 548 567 559 561 571 582 593 597 591 573 591 610 626 642 649 632 655 665 671 702 725 734 736 766 743 727 733 750 748 736 720 707 670 655 671 666 659 669 676 681 687 687 679 670 650 626 608 599 583 569 576 574 570 559 546 538 528 526 505 489 475 474 467 456 443 427 411 400 396 390 384 382 375 360 344 345 344 337 328 320 314 301 285 275 263 254 245 235 221 214 209 200 189 183 176 165 158 154 145 136 135 135 128 120 111 107 100 93 89 87 82 78 74 71 68 61 59 55 51 50 48 43 37 34 30 33 29 25 23 17 17 18 13 10 -9999 -9999 -9999 -9999 -9999 -9999 -9999 -9999
95 96 101 100 104 109 116 125 140 163 192 225 263 270 277 263 235 203 185 178 163 162 163 164 155 143 143 144 144 144 146 145 147 149 149 150 154 157 160 161 162 165 172 181 186 189 192 196 202 206 209 213 217 220 223 227 234 239 244 248 248 251 258 268 272 274 279 283 288 294 300 303 311 317 323 327 330 328 336 339 347 356 364 370 373 381 398 408 412 424 434 443 448 448 446 451 457 469 480 492 511 522 530 535 537 542 556 569 577 565 551 555 577 604 621 619 618 607 615 631 647 667 699 696 692 732 725 705 707 722 731 720 696 676 647 632 649 645 635 645 654 662 664 663 659 652 638 614 589 572 558 555 558 554 554 546 537 529 520 512 503 487 468 455 453 447 434 423 413 401 385 375 373 371 363 357 348 329 325 328 319 312 309 300 287 273 261 250 236 228 216 210 205 198 188 183 176 165 157 155 147 137 128 130 126 122 113 105 98 92 86 82 78 75 71 68 65 61 60 56 52 48 44 42 41 34 30 28 28 23 21 17 17 17 11 -9999 -9999 -9999 -9999 -9999 -9999 -9999 -9999 -9999
95 95 101 103 103 110 113 120 134 151 170 202 232 232 243 227 215 191 170 172 172 171 167 162 152 143 145 146 144 145 146 145 147 149 147 151 153 155 159 160 164 168 179 184 186 189 193 194 196 200 207 211 213 216 222 225 229 237 243 244 247 254 261 262 268 274 278 279 284 290 294 298 308 312 316 321 321 323 330 335 343 349 358 363 366 380 388 397 407 415 425 435 437 433 437 445 452 463 471 484 502 512 517 518 522 522 545 554 551 523 529 553 579 598 604 599 599 594 590 624 629 656 672 664 674 710 705 681 682 696 710 704 682 665 648 628 617 628 616 626 634 637 636 641 642 637 624 608 585 561 543 538 542 539 535 536 527 524 518 502 492 486 477 459 437 429 414 402 392 390 381 370 363 361 357 353 346 339 325 313 307 302 299 297 280 270 258 249 237 228 210 206 198 193 183 179 170 160 157 155 147 132 127 125 121 117 112 106 95 89 83 78 77 72 70 66 63 60 60 55 50 45 39 36 35 32 31 27 23 22 17 15 14 13 11 -9999 -9999 -9999 -9999 -9999 -9999 -9999 -9999 -9999
95 95 100 104 105 109 112 120 132 143 160 186 200 190 202 185 187 184 169 162 166 171 161 156 157 150 146 149 146 145 145 145 147 148 147 151 154 156 158 159 164 168 171 176 178 187 189 195 197 197 199 206 211 213 220 221 226 231 235 242 246 251 255 259 261 269 275 276 280 285 289 294 300 302 305 309 311 320 325 332 339 347 352 356 361 372 383 396 401 407 420 426 422 422 429 438 445 451 463 476 491 497 501 501 504 513 533 532 519 503 530 563 578 585 589 587 583 569 582 601 607 628 646 639 650 681 676 661 672 689 691 690 670 653 637 619 596 597 595 607 614 612 613 624 625 615 603 598 581 566 542 522 528 529 525 525 518 513 507 500 489 477 468 462 446 427 415 407 389 377 369 360 352 352 351 348 343 337 328 315 296 287 287 287 274 260 251 242 234 225 206 201 194 188 181 176 168 159 153 148 143 132 127 125 117 113 107 101 95 86 82 78 74 69 67 63 60 59 55 51 48 41 38 35 32 29 27 26 20 15 12 10 8 7 -9999 -9999 -9999 -9999 -9999 -9999 -9999 -9999 -9999 -9999
100 98 98 100 102 107 114 120 124 133 138 157 173 168 178 162 158 165 170 156 154 164 147 145 162 163 155 159 154 146 147 147 150 149 150 151 152 154 156 159 163 168 168 170 178 187 191 194 195 196 196 200 208 213 217 219 225 227 233 239 244 250 253 254 258 265 270 273 278 282 288 291 292 294 299 309 313 319 323 330 334 340 343 349 353 365 379 392 394 403 410 409 409 416 422 427 431 439 456 468 476 483 486 486 493 510 516 502 492 525 544 554 566 569 575 571 562 550 569 572 583 605 626 614 623 653 652 644 662 674 669 669 651 635 617 609 592 575 578 594 597 589 599 609 607 594 580 575 574 565 541 516 511 512 513 512 507 501 490 485 480 472 458 451 445 432 420 408 398 386 376 360 343 340 343 342 337 327 321 313 296 278 274 274 270 252 241 237 227 220 211 195 188 184 178 172 166 161 154 147 140 136 132 123 117 113 107 97 90 88 84 78 73 70 63 61 57 55 54 48 48 41 38 35 30 27 27 24 19 15 11 8 3 2 -9999 -9999 -9999 -9999 -9999 -9999 -9999 -9999 -9999 -9999
101 98 92 90 95 100 106 114 120 122 125 139 149 152 156 146 140 144 148 145 154 160 135 139 151 157 160 163 160 146 147 148 155 163 158 164 159 154 156 156 161 165 172 173 178 184 186 190 193 195 195 198 206 212 216 218 222 226 230 235 240 245 248 252 258 262 267 270 274 278 280 285 288 295 303 311 310 315 320 324 331 335 334 341 352 365 373 378 383 391 392 396 402 408 411 415 422 433 446 459 464 468 471 473 479 497 490 486 513 526 532 541 550 555 562 555 538 544 558 551 558 590 606 580 607 633 627 631 650 653 648 645 636 613 596 590 584 574 568 580 577 576 582 588 589 576 564 555 554 548 536 517 495 497 501 498 494 489 479 468 462 459 455 446 437 430 424 406 388 379 372 363 354 336 330 333 330 321 310 305 297 284 271 260 255 244 236 228 220 215 209 188 183 179 172 168 163 160 153 148 138 135 129 121 118 112 103 97 90 88 81 74 70 65 61 58 54 50 47 44 45 42 38 33 30 29 23 22 15 13 11 6 3 0 -9999 -9999 -9999 -9999 -9999 -9999 -9999 -9999 -9999 -9999
96 94 88 92 94 97 100 106 110 113 120 128 128 131 134 132 131 128 134 140 150 161 130 141 143 152 148 153 167 154 152 159 168 168 179 188 184 166 155 156 160 163 171 176 179 180 182 187 190 190 192 200 201 208 211 216 220 222 226 232 237 241 245 248 256 258 259 261 268 267 272 279 290 298 305 304 305 310 313 319 328 331 327 339 347 354 363 366 376 379 382 387 394 398 396 405 415 429 438 450 450 451 455 462 468 475 463 490 509 514 518 527 534 542 550 545 522 538 546 541 545 574 572 559 589 609 614 618 633 635 625 622 621 601 581 574 568 558 558 563 562 563 562 567 567 557 546 536 531 528 517 503 484 490 490 484 480 475 466 456 449 443 440 439 434 422 419 402 377 371 364 356 349 341 321 323 316 311 303 295 289 282 275 264 248 234 229 221 215 208 203 186 179 172 168 161 157 155 150 145 138 131 125 122 116 110 100 92 88 83 81 74 70 64 59 57 53 50 45 41 42 39 35 30 27 26 22 18 14 12 9 6 4 -9999 -9999 -9999 -9999 -9999 -9999 -9999 -9999 -9999 -9999 -9999
94 87 83 91 98 95 95 102 104 107 117 118 121 119 117 119 120 122 134 141 136 139 130 151 135 131 133 150 166 170 174 183 176 161 168 182 183 169 156 156 157 160 166 171 175 177 180 181 184 185 191 197 197 204 208 214 217 222 223 231 237 240 240 243 247 248 252 256 260 263 267 275 285 288 296 299 301 306 309 313 323 323 326 335 338 346 351 355 363 369 374 380 387 390 385 393 407 419 430 439 437 440 445 451 457 456 447 494 498 500 506 514 520 526 535 534 518 519 535 531 538 552 541 547 572 588 595 600 614 613 604 598 598 590 572 558 555 540 536 541 551 551 546 548 543 533 524 523 514 514 505 487 469 474 479 471 466 461 456 447 437 430 426 420 418 415 410 403 373 360 352 346 341 334 319 307 305 303 297 289 284 278 270 258 251 236 222 217 210 203 197 188 178 170 164 157 152 148 145 141 134 127 122 118 114 108 104 92 85 80 77 72 68 64 59 57 52 47 43 41 40 34 30 26 25 21 20 19 13 11 7 4 1 -9999 -9999 -9999 -9999 -9999 -9999 -9999 -9999 -9999 -9999 -9999
98 92 87 82 89 89 90 97 101 102 105 110 108 103 100 105 114 119 137 143 133 127 124 144 132 122 128 141 159 155 162 176 171 163 158 161 170 163 153 153 157 158 161 168 172 175 179 176 180 183 190 193 194 199 204 210 215 218 222 226 230 232 233 239 241 245 252 259 258 261 270 276 280 280 290 293 298 303 306 310 316 313 324 327 329 336 344 345 355 359 364 371 378 378 381 390 402 413 422 425 429 433 434 441 445 441 457 481 482 486 495 504 508 512 520 520 520 505 516 517 523 525 515 540 554 568 575 583 594 598 597 575 576 575 562 547 538 529 521 525 532 537 531 530 526 512 506 501 497 495 489 474 457 461 469 463 454 450 443 436 421 413 412 404 400 400 398 397 373 352 344 341 333 327 320 306 292 285 283 283 277 273 265 254 247 238 226 215 210 199 194 191 178 170 162 155 148 145 140 134 129 125 119 116 109 109 106 97 84 78 75 70 65 61 58 54 52 47 41 38 38 33 31 26 23 20 18 15 11 7 7 4 -9999 -9999 -9999 -9999 -9999 -9999 -9999 -9999 -9999 -9999 -9999 -9999
98 90 87 82 80 83 87 90 91 95 99 102 102 99 101 106 107 115 130 140 148 138 125 122 118 119 123 131 143 141 153 169 176 176 169 160 155 155 159 153 154 155 158 163 167 169 173 172 177 181 188 192 192 196 203 207 209 212 217 218 220 226 230 236 238 241 248 253 253 262 269 270 273 278 286 288 293 298 302 308 307 313 318 320 326 330 336 339 346 350 356 363 370 367 378 390 396 402 409 416 420 423 425 430 426 441 457 468 471 477 485 490 493 498 507 509 509 490 506 509 505 494 504 530 538 547 554 561 576 583 580 556 550 563 552 540 522 517 506 510 518 523 517 514 511 499 487 483 476 476 473 463 450 452 456 454 444 436 428 421 407 400 399 392 388 386 386 382 363 344 335 331 327 319 311 305 297 286 271 266 265 260 261 251 248 237 223 211 201 195 192 184 175 168 161 154 148 144 138 131 126 119 115 110 109 108 105 97 93 83 76 71 66 60 59 55 51 45 41 38 38 31 28 23 22 19 14 15 11 7 6 2 -9999 -9999 -9999 -9999 -9999 -9999 -9999 -9999 -9999 -9999 -9999 -9999
95 89 86 83 79 79 88 87 89 89 87 91 93 96 97 96 100 103 105 119 143 147 126 115 119 131 136 137 140 147 166 183 184 183 179 173 158 165 167 154 153 155 156 159 161 162 164 167 171 175 183 189 193 196 199 202 204 208 213 216 222 226 228 232 237 239 245 248 253 260 263 266 270 275 278 278 287 291 294 300 306 315 311 315 319 324 329 332 341 345 349 357 360 358 376 382 386 395 404 408 409 410 418 415 425 443 450 457 458 471 474 479 481 486 494 496 492 482 494 493 482 478 504 513 521 527 532 543 558 568 564 541 532 541 534 529 512 503 489 487 503 508 505 500 493 478 474 466 460 460 460 459 440 439 445 443 436 428 420 410 398 392 390 381 373 373 372 367 350 331 329 324 319 312 304 300 291 284 278 270 261 250 245 240 235 225 219 210 202 193 187 181 172 165 158 151 143 141 134 130 124 119 113 108 103 103 101 97 92 86 79 71 64 57 54 52 48 42 39 36 35 31 28 23 20 17 15 13 11 3 2 -9999 -9999 -9999 -9999 -9999 -9999 -9999 -9999 -9999 -9999 -9999 -9999 -9999
96 90 86 83 76 77 84 85 87 85 82 83 85 89 91 94 97 102 108 113 133 144 122 116 127 143 154 153 162 173 178 187 200 205 193 196 176 178 180 158 156 156 157 158 160 161 164 168 171 174 182 186 192 193 197 198 202 208 213 215 218 224 228 232 233 235 239 248 253 256 258 262 265 268 272 273 280 284 285 294 300 301 304 307 312 318 321 324 332 337 343 347 347 355 367 373 382 389 395 397 395 406 412 403 423 432 441 446 450 458 462 467 468 473 480 482 469 473 475 471 468 485 493 498 506 511 515 518 537 550 546 527 513 523 519 517 502 486 479 477 479 488 485 487 475 462 456 453 446 442 439 439 428 422 432 430 424 419 410 403 394 382 379 371 363 359 358 352 344 322 323 321 311 304 296 291 285 280 273 269 264 255 243 228 221 215 212 205 197 193 183 178 167 162 156 149 141 136 130 126 120 116 111 106 102 98 96 94 88 80 72 66 60 57 52 49 46 42 38 34 31 27 25 22 20 17 15 12 9 2 -9999 -9999 -9999 -9999 -9999 -9999 -9999 -9999 -9999 -9999 -9999 -9999 -9999 -9999
90 87 83 82 78 72 78 84 83 85 81 78 80 79 83 92 97 106 107 110 111 129 114 106 135 142 140 148 156 165 154 174 206 218 209 205 190 195 182 173 179 166 158 157 159 161 165 166 170 173 177 183 187 190 195 197 200 203 209 212 217 222 224 229 230 234 241 247 249 252 256 259 263 263 267 273 278 279 281 285 291 295 299 304 306 311 315 320 326 330 335 339 342 350 361 367 377 381 383 384 388 403 405 393 412 420 429 433 439 447 451 454 454 461 464 466 457 459 459 449 463 478 480 483 492 496 496 493 518 531 528 510 488 499 505 500 489 468 475 476 463 469 468 464 454 446 445 442 435 429 424 421 410 403 415 418 414 409 401 394 387 375 369 363 354 347 344 343 334 315 312 315 306 296 289 282 279 274 269 264 257 252 243 233 223 214 204 198 194 190 184 175 167 157 154 148 139 132 125 121 119 117 114 101 98 94 89 85 82 78 73 66 60 54 51 48 44 39 35 29 28 24 21 20 19 17 15 12 9 2 -9999 -9999 -9999 -9999 -9999 -9999 -9999 -9999 -9999 -9999 -9999 -9999 -9999 -9999
84 88 84 82 78 72 73 75 76 78 81 78 74 71 73 76 84 92 89 93 92 113 105 109 144 133 124 127 130 134 146 179 213 222 216 192 189 205 197 195 194 171 156 157 158 160 162 166 169 171 176 180 183 187 192 193 198 200 202 207 212 220 224 224 226 232 242 244 245 249 254 257 260 261 264 269 273 273 274 279 284 289 295 299 301 306 310 314 318 322 327 334 341 349 357 359 364 372 376 374 386 391 396 383 402 412 421 423 432 435 440 440 444 448 449 453 453 433 436 431 454 464 464 470 479 485 478 477 498 509 508 492 475 479 488 485 474 454 465 467 450 450 455 445 438 437 434 427 423 417 414 408 397 386 397 406 406 403 396 386 379 370 359 351 347 341 332 331 328 316 303 309 303 291 282 272 269 267 262 256 251 248 241 233 224 214 206 195 190 187 180 176 166 154 150 143 136 127 122 119 115 113 109 105 99 92 85 82 79 74 69 65 60 55 51 46 42 37 33 30 28 24 21 19 15 13 12 9 6 -9999 -9999 -9999 -9999 -9999 -9999 -9999 -9999 -9999 -9999 -9999 -9999 -9999 -9999 -9999
78 84 83 79 77 74 70 67 74 76 75 72 67 67 67 69 69 77 81 84 87 103 99 98 120 117 113 115 121 131 152 183 197 195 195 169 169 200 204 201 185 163 161 160 162 159 162 164 168 171 172 176 181 184 187 192 197 198 199 205 211 216 218 217 226 230 239 240 241 244 246 251 255 254 257 263 267 265 272 279 280 285 290 292 295 300 305 310 314 316 322 328 334 345 349 349 357 363 361 362 375 382 387 376 390 406 413 416 418 422 426 425 433 435 436 444 450 437 416 417 435 447 446 455 463 472 465 460 477 483 490 479 470 461 471 472 461 441 441 455 446 434 442 437 428 425 423 415 411 407 402 399 392 376 385 391 395 394 389 383 373 359 350 341 336 335 326 321 320 308 298 302 297 290 280 268 263 259 253 249 242 240 236 227 222 210 203 195 186 181 176 172 168 150 144 141 132 126 122 116 113 110 107 104 98 90 84 77 74 68 66 61 58 58 51 46 40 36 33 27 25 24 19 16 13 9 9 6 4 -9999 -9999 -9999 -9999 -9999 -9999 -9999 -9999 -9999 -9999 -9999 -9999 -9999 -9999 -9999
70 76 82 83 78 79 72 68 70 70 64 60 59 61 60 61 62 64 69 78 86 95 92 90 100 104 107 120 133 147 158 180 172 170 173 148 172 182 169 188 188 173 179 166 174 162 161 162 165 167 170 173 178 181 183 187 192 196 202 207 211 212 211 217 226 229 232 234 234 240 245 248 249 247 255 259 260 261 265 272 276 279 286 290 293 300 301 306 311 313 318 324 333 340 342 345 354 350 347 362 370 376 372 367 383 392 403 406 402 414 411 414 421 419 427 437 440 436 413 403 420 430 433 441 451 460 446 451 458 462 473 467 460 449 453 456 453 434 423 446 441 419 430 426 417 415 416 407 401 397 392 390 384 373 374 380 386 383 376 373 367 355 343 335 329 329 322 311 309 305 297 292 294 287 278 266 259 251 248 244 240 235 229 223 219 208 197 190 184 177 174 168 164 150 144 136 131 128 123 116 112 107 104 104 97 93 82 75 71 66 63 59 55 54 49 44 40 36 31 28 25 23 18 13 11 8 7 6 -9999 -9999 -9999 -9999 -9999 -9999 -9999 -9999 -9999 -9999 -9999 -9999 -9999 -9999 -9999 -9999
66 71 75 77 68 71 63 65 66 64 60 61 59 61 61 61 61 61 64 75 81 89 91 88 93 97 101 109 121 125 145 177 162 146 158 144 147 158 149 166 192 187 192 185 187 173 161 162 163 167 169 172 174 178 179 182 188 192 199 203 204 207 209 217 223 227 228 232 232 234 240 241 243 242 250 254 253 259 263 269 272 275 278 284 287 290 295 300 304 308 313 323 327 332 335 341 344 337 352 359 359 366 358 368 371 374 394 407 392 404 400 406 408 407 418 423 425 424 412 397 407 412 420 434 444 448 433 432 439 447 451 453 447 438 440 445 440 428 413 434 435 417 417 417 409 400 405 399 393 387 381 377 373 364 365 371 372 372 368 364 358 350 342 330 322 320 318 305 298 290 285 279 285 285 278 267 254 242 238 239 236 227 222 219 214 205 195 182 180 175 170 166 160 151 143 135 130 126 120 115 112 106 102 98 91 88 81 74 69 64 60 57 54 53 47 42 37 33 30 28 22 21 18 15 10 10 6 -9999 -9999 -9999 -9999 -9999 -9999 -9999 -9999 -9999 -9999 -9999 -9999 -9999 -9999 -9999 -9999 -9999
64 70 70 64 65 64 61 66 68 68 66 63 61 62 61 60 61 61 64 69 69 77 86 91 88 97 96 103 104 113 142 175 164 134 145 144 133 139 135 155 196 212 206 189 177 171 160 160 161 163 164 167 171 173 176 177 182 190 194 197 198 200 210 217 222 222 221 229 230 229 232 234 237 239 242 247 251 257 261 266 268 272 274 281 281 286 291 295 298 302 311 319 322 325 330 336 336 326 343 347 351 348 348 361 358 362 381 384 377 391 391 392 394 394 406 411 410 412 406 389 396 402 413 422 429 435 433 419 420 430 431 433 437 429 425 432 428 413 405 425 427 413 404 410 401 395 387 384 383 379 371 365 362 353 354 357 356 356 358 354 349 343 334 326 320 317 312 304 294 282 279 273 270 274 271 264 254 242 234 231 227 219 215 211 207 200 193 181 176 167 165 160 153 149 139 134 129 122 118 114 108 104 101 97 90 86 82 73 67 63 58 53 50 48 43 39 36 32 30 26 21 21 21 19 12 11 6 -9999 -9999 -9999 -9999 -9999 -9999 -9999 -9999 -9999 -9999 -9999 -9999 -9999 -9999 -9999 -9999 -9999
66 64 67 67 65 64 67 67 67 67 66 63 62 67 64 61 63 62 61 61 63 68 80 90 87 86 89 91 108 131 143 170 162 135 128 132 124 123 137 158 192 195 191 191 162 153 153 157 161 164 165 167 168 170 173 177 182 184 186 192 194 200 212 215 217 219 218 224 226 223 225 227 233 237 241 245 249 254 258 261 263 265 268 272 277 281 288 290 297 304 311 314 316 319 325 329 325 320 332 337 339 337 349 354 346 345 353 357 365 379 379 380 381 384 398 402 398 401 398 382 381 398 405 411 419 422 423 417 403 416 417 421 426 423 412 418 418 399 404 416 419 414 394 396 396 390 382 374 368 371 366 355 351 342 343 347 343 338 345 336 334 331 324 318 314 309 303 295 287 279 273 270 256 255 260 258 253 244 230 224 222 216 211 208 202 197 191 183 174 164 158 157 150 145 135 131 126 121 114 109 107 101 96 91 84 78 76 69 64 60 55 52 48 44 42 38 36 31 27 24 23 20 18 15 11 4 -9999 -9999 -9999 -9999 -9999 -9999 -9999 -9999 -9999 -9999 -9999 -9999 -9999 -9999 -9999 -9999 -9999 -9999
76 71 66 66 65 67 67 67 64 66 67 68 64 66 66 63 63 62 64 62 62 68 76 88 91 83 83 90 107 111 122 135 159 142 118 122 118 127 152 182 199 173 163 177 170 155 149 155 157 161 161 163 164 167 174 175 179 181 184 192 194 202 208 210 211 212 214 216 215 217 220 227 232 233 239 241 244 249 250 253 257 261 265 268 273 275 282 287 294 298 303 307 308 314 316 319 314 317 325 329 325 334 341 345 340 334 334 344 357 361 370 370 370 378 388 393 385 390 394 379 369 388 392 402 410 413 414 408 392 401 405 412 413 411 398 408 402 382 393 405 407 406 394 378 382 378 376 372 365 359 356 352 345 335 335 336 336 329 325 316 316 316 314 312 307 302 297 287 278 272 266 263 255 246 245 244 244 241 230 220 216 211 206 202 197 191 183 177 174 167 158 153 147 142 133 129 124 118 113 107 102 99 94 90 81 74 71 67 63 58 54 51 47 44 41 36 32 27 27 27 25 19 15 14 11 4 -9999 -9999 -9999 -9999 -9999 -9999 -9999 -9999 -9999 -9999 -9999 -9999 -9999 -9999 -9999 -9999 -9999 -9999
81 82 82 76 74 77 77 70 63 67 67 68 67 66 66 65 61 60 62 64 63 67 75 88 96 79 82 87 97 96 108 127 151 131 113 110 113 123 148 181 190 171 154 154 155 164 149 149 150 153 155 158 167 170 171 174 176 178 181 186 190 196 201 204 205 209 210 209 209 214 218 223 228 231 234 239 243 247 248 251 254 260 261 262 268 272 277 282 290 294 299 300 304 307 309 312 306 311 317 315 317 325 330 335 331 326 323 334 347 347 360 357 364 369 377 384 377 380 384 376 363 373 382 389 399 402 400 392 381 389 392 403 399 397 389 396 390 377 385 392 394 394 386 370 369 369 361 365 359 349 343 343 340 328 327 327 324 318 312 307 303 302 307 307 298 291 289 280 270 266 261 254 248 243 238 232 234 232 225 214 210 205 198 195 189 183 178 174 169 164 157 151 148 142 136 124 121 116 110 105 99 96 90 84 78 72 68 65 60 56 53 49 47 44 39 35 28 25 24 23 25 20 13 11 5 -9999 -9999 -9999 -9999 -9999 -9999 -9999 -9999 -9999 -9999 -9999 -9999 -9999 -9999 -9999 -9999 -9999 -9999 -9999
91 92 90 87 86 84 79 76 72 73 69 67 70 67 69 71 63 62 61 60 63 63 66 71 81 74 74 80 91 94 112 131 141 125 111 109 116 131 160 177 169 168 146 147 142 145 147 148 149 148 153 163 172 168 168 171 174 177 178 182 186 190 195 199 207 206 204 205 208 212 216 220 223 228 233 237 244 243 245 250 254 257 257 260 264 267 274 279 287 291 296 298 296 296 303 302 297 306 312 306 310 315 319 325 322 319 318 321 330 336 346 348 358 365 365 367 369 369 372 370 357 359 372 378 388 390 385 378 371 378 380 390 387 385 379 380 381 367 380 380 379 380 377 368 355 361 355 352 349 340 334 329 330 322 320 318 313 308 305 303 296 292 295 292 280 275 273 269 263 261 255 248 244 240 235 225 226 227 218 208 205 200 196 190 184 181 176 169 167 159 154 150 145 141 135 123 118 114 107 103 99 92 87 81 75 71 67 63 58 55 51 48 47 42 37 33 28 24 22 20 19 16 10 8 -9999 -9999 -9999 -9999 -9999 -9999 -9999 -9999 -9999 -9999 -9999 -9999 -9999 -9999 -9999 -9999 -9999 -9999 -9999 -9999
90 96 97 93 91 87 77 75 74 76 71 67 66 67 67 70 64 63 62 62 64 64 65 65 66 67 68 70 81 87 99 116 125 113 106 109 127 144 169 157 162 164 136 142 139 139 143 146 146 147 155 175 173 168 168 171 171 172 175 177 181 190 193 196 202 198 198 203 208 212 213 215 216 222 226 233 238 237 244 250 249 250 253 256 259 264 273 281 284 285 288 291 288 293 296 295 290 296 302 299 304 309 314 316 315 312 310 313 319 329 333 344 351 355 354 353 358 360 360 358 350 349 366 372 379 379 378 374 358 365 369 378 374 374 372 366 366 358 369 371 366 365 369 363 347 351 349 343 340 332 325 321 321 317 308 310 306 301 300 297 293 285 278 273 269 267 265 262 260 256 250 244 238 233 230 224 216 217 210 204 200 194 193 185 182 177 174 166 160 154 151 146 139 134 130 122 117 111 106 102 96 87 84 77 73 68 65 61 57 52 49 46 43 39 35 33 31 25 21 20 16 14 10 6 -9999 -9999 -9999 -9999 -9999 -9999 -9999 -9999 -9999 -9999 -9999 -9999 -9999 -9999 -9999 -9999 -9999 -9999 -9999 -9999
91 95 97 97 96 90 81 76 72 73 69 71 74 73 71 68 68 65 63 65 63 63 65 67 64 65 68 71 74 90 98 107 114 105 102 104 131 155 167 150 151 158 140 135 134 136 139 144 143 153 174 184 180 180 169 165 168 170 171 175 178 186 189 193 194 194 195 200 206 208 210 211 215 219 223 225 230 236 241 244 245 245 248 253 254 264 273 280 280 274 274 278 281 288 290 283 282 287 290 295 301 304 308 305 304 305 302 309 315 319 326 339 345 345 343 343 348 347 349 351 343 344 359 362 367 369 366 364 353 353 353 366 366 361 361 359 352 346 355 358 355 351 354 351 338 341 339 336 330 327 322 316 312 311 305 300 303 299 293 289 285 281 275 267 261 262 259 257 257 251 244 240 234 231 228 223 216 206 201 197 196 192 184 183 179 171 168 162 157 151 145 140 134 128 124 119 113 107 102 98 93 88 84 77 71 66 61 58 54 48 44 43 41 35 32 32 29 26 25 21 16 11 9 1 -9999 -9999 -9999 -9999 -9999 -9999 -9999 -9999 -9999 -9999 -9999 -9999 -9999 -9999 -9999 -9999 -9999 -9999 -9999 -9999
95 97 97 99 99 94 85 81 71 70 69 74 79 80 79 70 70 68 65 64 64 64 65 67 64 65 68 71 73 86 96 106 105 93 96 97 112 133 155 149 134 134 133 132 132 135 139 139 145 171 180 155 170 184 172 165 164 168 169 172 176 179 182 187 189 194 194 196 201 203 208 212 211 215 217 223 226 232 237 239 240 241 243 248 253 262 267 273 271 266 267 271 275 282 281 277 278 281 289 297 298 297 300 298 295 296 295 304 307 313 314 331 333 334 335 335 340 340 342 343 336 338 348 352 356 355 353 353 353 347 343 354 358 354 349 348 341 337 342 345 346 341 343 335 327 331 331 328 322 319 318 312 307 303 302 294 296 295 290 283 277 275 268 262 255 257 252 250 251 249 242 235 227 222 222 218 215 207 197 197 194 189 181 178 175 166 163 158 152 152 145 139 132 125 122 115 112 107 99 94 89 88 83 77 71 65 61 56 51 48 43 40 38 34 29 27 24 23 23 18 15 10 9 3 -9999 -9999 -9999 -9999 -9999 -9999 -9999 -9999 -9999 -9999 -9999 -9999 -9999 -9999 -9999 -9999 -9999 -9999 -9999 -9999
98 97 100 103 100 94 89 85 75 72 73 79 85 87 88 80 73 71 73 68 65 64 65 67 67 66 68 71 72 78 84 102 99 85 88 90 102 123 139 142 140 135 130 126 128 132 132 137 153 170 154 141 151 154 173 178 162 163 165 169 170 174 175 179 186 188 193 198 198 198 204 208 207 209 213 219 224 227 230 231 234 237 239 243 251 261 266 265 259 254 258 262 269 273 272 270 272 277 288 291 287 289 290 289 288 287 291 295 300 303 304 322 324 320 320 324 330 332 336 336 330 329 336 339 344 342 343 344 346 336 331 340 347 343 338 338 330 326 330 335 336 330 330 323 321 323 321 318 315 311 310 309 306 299 295 289 285 285 284 278 271 267 260 254 250 246 242 241 241 239 238 229 223 218 213 208 207 200 192 190 189 185 181 175 169 163 158 153 147 144 138 134 131 124 121 110 106 103 100 95 87 82 77 75 70 63 58 55 49 45 42 39 36 33 30 25 22 24 23 17 14 11 6 -9999 -9999 -9999 -9999 -9999 -9999 -9999 -9999 -9999 -9999 -9999 -9999 -9999 -9999 -9999 -9999 -9999 -9999 -9999 -9999 -9999
100 100 100 98 94 89 84 80 75 74 77 85 92 90 98 91 77 71 71 71 67 64 66 67 70 72 69 72 75 79 82 100 98 85 89 93 100 112 112 120 128 135 126 121 127 132 131 135 150 160 145 132 137 148 170 172 159 161 162 165 167 171 175 177 179 181 187 197 198 200 202 201 203 208 210 215 220 222 223 227 229 232 233 238 248 256 258 252 251 253 256 258 262 261 262 263 267 274 281 284 280 280 282 277 280 281 287 288 291 294 296 308 310 309 311 317 323 326 328 328 323 318 323 326 331 331 330 331 333 330 323 330 334 330 330 328 320 313 323 329 328 322 317 311 315 316 311 304 305 304 304 304 301 295 290 283 281 279 277 275 267 260 253 248 245 240 237 236 237 235 232 224 219 214 210 204 201 194 188 184 184 183 176 168 165 158 154 150 145 140 135 129 124 121 116 112 104 97 95 94 84 81 73 68 67 60 55 48 45 43 40 37 33 30 29 24 20 19 18 18 17 9 5 -9999 -9999 -9999 -9999 -9999 -9999 -9999 -9999 -9999 -9999 -9999 -9999 -9999 -9999 -9999 -9999 -9999 -9999 -9999 -9999 -9999
101 103 102 93 88 88 86 88 84 85 83 83 92 95 108 105 93 79 67 66 64 65 66 65 71 77 74 77 78 77 81 85 87 86 94 98 105 107 109 110 112 117 119 122 127 128 126 130 140 150 149 137 143 150 163 162 160 158 159 163 165 168 173 175 177 178 182 190 194 199 198 198 202 206 208 211 214 219 219 221 224 228 229 231 237 245 245 244 242 247 252 251 250 251 254 258 263 268 270 272 272 272 275 271 273 274 279 282 283 284 291 300 302 303 307 310 314 318 320 320 318 312 315 320 321 321 320 324 323 318 314 316 320 316 316 319 315 307 317 318 321 315 307 304 310 307 300 297 294 292 296 294 295 294 287 277 277 274 272 268 262 259 253 245 240 236 234 229 228 226 224 220 214 211 205 199 194 190 184 178 179 177 171 169 166 157 148 146 142 138 134 126 122 118 113 111 100 95 91 90 82 77 71 66 62 57 52 49 45 41 36 32 32 30 31 26 22 18 16 15 14 8 -9999 -9999 -9999 -9999 -9999 -9999 -9999 -9999 -9999 -9999 -9999 -9999 -9999 -9999 -9999 -9999 -9999 -9999 -9999 -9999 -9999 -9999
103 101 95 88 89 91 100 105 99 101 91 87 88 91 98 111 109 98 76 69 67 68 65 65 67 74 76 76 76 77 79 84 85 89 95 100 104 105 109 112 114 114 117 121 124 123 120 123 128 132 135 135 139 143 147 155 153 155 155 160 163 166 169 170 171 174 177 182 188 194 195 197 202 203 206 207 210 213 214 216 219 222 226 229 230 233 231 233 236 239 244 243 244 246 250 253 261 264 264 264 264 263 263 267 268 269 273 273 277 279 289 295 294 295 303 306 310 311 314 315 310 309 312 312 311 309 313 320 316 310 305 305 310 308 306 309 307 300 306 306 312 309 295 299 306 300 296 292 286 285 287 287 287 286 282 268 268 267 264 262 257 253 251 241 238 233 224 222 220 220 217 214 207 204 202 194 190 185 183 177 172 167 166 165 162 156 146 143 136 134 131 124 119 115 110 108 103 92 86 84 80 73 70 64 59 54 50 48 45 41 35 32 33 29 25 24 21 19 16 13 9 5 -9999 -9999 -9999 -9999 -9999 -9999 -9999 -9999 -9999 -9999 -9999 -9999 -9999 -9999 -9999 -9999 -9999 -9999 -9999 -9999 -9999 -9999
102 99 93 96 97 108 123 127 112 114 113 99 102 110 104 103 109 114 107 89 78 74 73 66 67 70 75 76 73 74 79 81 86 86 91 94 97 102 105 109 111 111 116 117 117 116 116 118 124 126 127 134 140 143 145 145 149 152 156 159 162 164 165 166 170 172 173 176 183 191 192 195 200 201 201 203 203 206 209 213 217 217 221 226 226 225 226 228 230 233 236 237 239 242 247 247 257 258 257 256 256 255 258 262 261 264 268 268 270 276 285 289 284 286 295 299 304 307 309 307 301 303 303 307 304 303 306 311 311 305 297 295 297 298 296 300 299 289 298 301 305 299 287 294 298 291 288 286 280 279 278 280 281 278 275 264 255 258 254 254 250 246 240 236 232 227 219 216 216 215 214 209 203 199 196 190 185 181 176 174 170 165 161 159 156 151 145 141 134 132 129 122 117 112 108 105 102 89 84 79 75 74 70 63 56 52 50 50 44 39 35 30 27 23 20 16 15 15 14 10 7 6 -9999 -9999 -9999 -9999 -9999 -9999 -9999 -9999 -9999 -9999 -9999 -9999 -9999 -9999 -9999 -9999 -9999 -9999 -9999 -9999 -9999 -9999
99 100 100 111 113 124 134 127 124 122 128 117 108 119 124 122 108 108 115 109 90 87 82 71 64 67 70 76 73 76 76 78 84 87 86 90 94 96 103 105 108 108 111 110 109 111 114 118 120 122 125 134 141 143 141 143 147 151 155 156 159 161 161 162 165 168 169 171 175 180 185 191 197 196 198 198 202 203 204 210 211 212 218 221 220 219 220 221 226 226 228 232 236 237 241 243 249 250 249 250 248 246 249 254 257 259 261 261 265 269 277 279 278 283 287 293 297 300 303 299 295 295 295 297 296 295 294 299 302 300 292 288 288 289 290 290 289 283 290 290 290 289 279 285 286 285 285 281 275 271 272 274 273 270 266 262 251 247 247 251 244 239 233 229 226 223 219 212 210 211 206 202 200 195 193 187 183 178 173 169 166 164 157 154 154 148 142 139 132 126 126 121 114 111 107 101 93 89 82 77 71 67 63 59 54 50 48 47 43 37 32 27 26 26 20 16 14 15 12 12 6 -9999 -9999 -9999 -9999 -9999 -9999 -9999 -9999 -9999 -9999 -9999 -9999 -9999 -9999 -9999 -9999 -9999 -9999 -9999 -9999 -9999 -9999 -9999
100 110 112 117 127 133 133 134 137 137 146 137 117 116 131 128 118 113 114 114 105 97 90 77 65 67 68 78 75 75 77 78 80 84 86 89 93 94 99 102 104 104 107 106 108 109 111 114 118 121 124 131 139 141 139 138 144 150 153 155 158 157 160 163 162 164 168 168 171 176 183 190 195 195 193 194 198 200 201 208 207 208 211 216 216 214 216 214 217 219 223 227 229 232 234 240 243 243 244 245 241 242 246 249 250 252 254 257 259 260 267 270 275 280 283 286 289 293 293 290 287 288 293 290 289 285 287 289 292 290 285 280 281 283 281 283 280 276 279 279 279 281 275 276 277 279 277 271 267 264 262 261 263 261 258 254 247 240 243 244 239 233 227 221 219 217 212 205 205 204 199 197 194 190 185 182 180 175 172 165 160 157 151 148 150 146 140 132 127 121 118 116 111 110 105 97 88 80 77 72 68 62 58 55 52 48 45 41 37 34 31 26 25 23 20 15 12 12 12 10 6 -9999 -9999 -9999 -9999 -9999 -9999 -9999 -9999 -9999 -9999 -9999 -9999 -9999 -9999 -9999 -9999 -9999 -9999 -9999 -9999 -9999 -9999 -9999
